ply
format ascii 1.0
comment PCL generated
element vertex 1403
property float x
property float y
property float z
element camera 0
property float view_px
property float view_py
property float view_pz
property float x_axisx
property float x_axisy
property float x_axisz
property float y_axisx
property float y_axisy
property float y_axisz
property float z_axisx
property float z_axisy
property float z_axisz
property float focal
property float scalex
property float scaley
property float centerx
property float centery
property int viewportx
property int viewporty
property float k1
property float k2
end_header
-0.89854193 -0.22535205 3.0177984
-0.89853621 -0.22535539 3.0215485
-0.89776492 -0.22584653 3.0287969
-0.8982687 -0.22536039 3.0327981
-0.89902234 -0.22488022 3.0372996
-0.89850688 -0.22537279 3.0405486
-0.89900565 -0.225137 3.0447996
-0.89849448 -0.22537994 3.0485485
-0.89949703 -0.22465849 3.0568006
-0.89272666 -0.22551894 3.0575395
-0.8932426 -0.22502613 3.0540407
-0.89299345 -0.22526717 3.0500402
-0.89249492 -0.22550297 3.0457892
-0.89224672 -0.22574377 3.0415385
-0.89250684 -0.22549582 3.0380392
-0.89377737 -0.22476935 3.0347919
-0.89276862 -0.22549415 3.0302894
-0.89277434 -0.22549057 3.0265396
-0.89353991 -0.22500348 3.0232911
-0.89380074 -0.22475529 3.0195417
-0.89355803 -0.22499275 3.0115411
-0.88780141 -0.2251246 3.013032
-0.88754582 -0.22512293 3.0167818
-0.8885541 -0.2243979 3.0212839
-0.88854837 -0.22440124 3.025034
-0.88828778 -0.22464967 3.0287836
-0.88726711 -0.22538137 3.0320311
-0.88751626 -0.22514033 3.0360317
-0.88675117 -0.22562766 3.0392802
-0.88699985 -0.22538662 3.0435309
-0.88699412 -0.22538996 3.0472808
-0.88774228 -0.22515965 3.051532
-0.88596749 -0.22612572 3.0545285
-0.88596177 -0.22612906 3.0582786
-0.87970233 -0.22649956 3.0585186
-0.88072252 -0.22576761 3.0552709
-0.88174295 -0.22503567 3.0520229
-0.88048005 -0.22600508 3.0472701
-0.88150001 -0.22527313 3.0440226
-0.8815062 -0.22526956 3.0400226
-0.88151193 -0.22526598 3.0362725
-0.88303685 -0.22429466 3.0332756
-0.88076401 -0.22574306 3.028271
-0.88177967 -0.2252605 3.0247729
-0.88153553 -0.22525215 3.0210226
-0.88154173 -0.22524858 3.0170226
-0.88103747 -0.22573447 3.013021
-0.87756348 -0.22416568 3.0167673
-0.8755455 -0.22536969 3.012013
-0.87603855 -0.22513676 3.0197642
-0.8762877 -0.22489595 3.0237646
-0.87653065 -0.22465825 3.0315154
-0.87627006 -0.22490644 3.0352647
-0.87524962 -0.22563839 3.0385125
-0.87524343 -0.22564197 3.0425124
-0.87472796 -0.22613454 3.0457613
-0.87548137 -0.22565436 3.0502627
-0.87548089 -0.22540784 3.054013
-0.87496495 -0.22590065 3.0577619
-0.8704741 -0.22530866 3.0592556
-0.86972547 -0.22553921 3.0550041
-0.8702364 -0.2252965 3.0512552
-0.86973739 -0.22553205 3.0472541
-0.86999321 -0.22553372 3.0432544
-0.87075853 -0.2250464 3.0400062
-0.87101936 -0.2247982 3.0362568
-0.87153006 -0.22455549 3.0327578
-0.87128615 -0.22454691 3.0287573
-0.87154198 -0.22454834 3.0250077
-0.8707881 -0.22502875 3.020756
-0.87053943 -0.22527003 3.0167556
-0.87055016 -0.22501659 3.0130057
-0.86656117 -0.22418714 3.0165005
-0.93950486 -0.22473836 3.0566123
-0.93976045 -0.22473979 3.0528624
-0.93951178 -0.22498083 3.0486119
-0.94027662 -0.22449374 3.0453637
-0.94053793 -0.22424531 3.0416141
-0.94029379 -0.22423649 3.0376139
-0.93979049 -0.22472215 3.0333624
-0.94030094 -0.22447944 3.0296135
-0.94030666 -0.22447586 3.0258636
-0.93980861 -0.22471142 3.0216124
-0.94032383 -0.22421885 3.0181139
-0.94032431 -0.22446537 3.0143635
-0.93406749 -0.22483444 3.0131035
-0.9345715 -0.22434855 3.0171049
-0.93532538 -0.22386789 3.0213563
-0.93455958 -0.22435546 3.0248549
-0.93353939 -0.2250874 3.0281026
-0.93454719 -0.22436285 3.0328548
-0.93327236 -0.22533965 3.035852
-0.93529534 -0.22388577 3.0408564
-0.93402505 -0.22461271 3.0441039
-0.93426895 -0.22462153 3.048104
-0.93324852 -0.22535372 3.051352
-0.92799687 -0.22499919 3.0563443
-0.92800832 -0.22474575 3.0523446
-0.92953348 -0.22377396 3.0493476
-0.92802024 -0.2247386 3.0445945
-0.92827606 -0.22474051 3.0408447
-0.92778325 -0.22497249 3.0328438
-0.92854905 -0.22448516 3.0293455
-0.9280498 -0.22472095 3.0253446
-0.92856097 -0.22447801 3.0215955
-0.92907095 -0.22423553 3.0180964
-0.92882752 -0.22422647 3.014096
-0.92231727 -0.22483921 3.0115855
-0.92256594 -0.22459793 3.0155861
-0.92306495 -0.22436237 3.0198371
-0.92305923 -0.22436595 3.0235872
-0.92304635 -0.22412658 3.0350873
-0.92253065 -0.22461891 3.0385861
-0.92277956 -0.22437811 3.0428367
-0.92276835 -0.22463155 3.0465865
-0.92276764 -0.22438526 3.0505867
-0.91624546 -0.22500467 3.0555761
-0.91727304 -0.2245152 3.044328
-0.91677427 -0.22475123 3.0403271
-0.91754484 -0.22401381 3.036829
-0.91628122 -0.22498345 3.0323262
-0.91705894 -0.22448897 3.0210779
-0.91706467 -0.22448564 3.0173278
-0.91107011 -0.22460556 3.0113182
-0.91156268 -0.2243731 3.0193195
-0.91079688 -0.22486091 3.0228179
-0.91103506 -0.22487307 3.0305681
-0.91101742 -0.22488356 3.042068
-0.9110117 -0.22488713 3.0458181
-0.91126037 -0.22464585 3.0500689
-0.90525079 -0.22477484 3.0538094
-0.90579033 -0.2242682 3.0348108
-0.90554142 -0.22450876 3.03056
-0.89979959 -0.2243855 3.0260513
-0.90000796 -0.2244153 3.0533016
-0.89431143 -0.2245121 3.0157928
-0.8785553 -0.22369742 3.0287693
-0.86707664 -0.22369432 3.0130014
-0.86782479 -0.22321725 3.0210032
-0.86832309 -0.22298169 3.0252542
-0.86781287 -0.2232244 3.0287533
-0.86780667 -0.22322798 3.0327532
-0.86729622 -0.22347069 3.0362523
-0.8672905 -0.22347426 3.0400023
-0.86753941 -0.22323298 3.0440028
-0.86905265 -0.22226882 3.0487561
-0.86676288 -0.22397399 3.0512512
-0.86751652 -0.22349334 3.0555024
-0.86852503 -0.22276831 3.0600049
-0.86682963 -0.22023106 3.0585046
-0.86784983 -0.21949935 3.0552568
-0.86734605 -0.21998525 3.0510056
-0.86761236 -0.21948671 3.0472562
-0.86660385 -0.22021151 3.0427542
-0.86736941 -0.21972442 3.0392559
-0.86737514 -0.21972108 3.0355058
-0.86814046 -0.21923351 3.0322573
-0.86688232 -0.2199533 3.0275049
-0.86663342 -0.2201941 3.0235043
-0.86739898 -0.21970677 3.0200059
-0.86765432 -0.21970868 3.0165062
-0.86589122 -0.22066784 3.0117526
-0.86748433 -0.21620011 3.0117593
-0.86672378 -0.21643758 3.0152578
-0.86747241 -0.21620703 3.0195091
-0.86721706 -0.21620512 3.0230086
-0.86594677 -0.21693182 3.0262561
-0.86745524 -0.21621728 3.0307591
-0.86719894 -0.21621585 3.0347588
-0.86567426 -0.21718669 3.0375054
-0.8671875 -0.21622252 3.0422587
-0.86667681 -0.21646547 3.0457578
-0.86793494 -0.21574593 3.0505104
-0.86565042 -0.21720076 3.0530055
-0.86690879 -0.21648145 3.057508
-0.8674953 -0.21224356 3.0585127
-0.86775613 -0.21199512 3.0547636
-0.86750722 -0.21223664 3.0507627
-0.86523485 -0.21368456 3.0455079
-0.86802363 -0.21198988 3.0432639
-0.86701536 -0.21271491 3.0387616
-0.86676621 -0.21295619 3.0347612
-0.86702728 -0.21270776 3.0310116
-0.86678338 -0.21269894 3.0270114
-0.8662796 -0.21318507 3.0230098
-0.86654043 -0.21293688 3.0192606
-0.86756063 -0.21220493 3.0160127
-0.86705661 -0.21269059 3.0120115
-0.86637235 -0.20942712 3.0132635
-0.86687613 -0.20894098 3.0172646
-0.86534619 -0.2101624 3.0202613
-0.86660933 -0.20919275 3.0250142
-0.86660361 -0.20919633 3.0287642
-0.86558318 -0.20992851 3.0320117
-0.86709619 -0.20896387 3.0367651
-0.8663311 -0.20945144 3.0400136
-0.86759448 -0.20848179 3.0447664
-0.86783814 -0.20849037 3.0487669
-0.86656809 -0.20921731 3.0517642
-0.86656213 -0.20922089 3.0557642
-0.8663063 -0.20921898 3.0595138
-0.86713982 -0.205235 3.0590186
-0.86588168 -0.20595431 3.054266
-0.86715174 -0.20522809 3.0512688
-0.8674078 -0.20522952 3.0472689
-0.86690879 -0.20546532 3.043268
-0.86641049 -0.20570135 3.039017
-0.86591125 -0.20593691 3.0350161
-0.86692691 -0.20545459 3.031518
-0.86642814 -0.20569086 3.0275171
-0.86693835 -0.20544791 3.024018
-0.86644006 -0.20568371 3.019767
-0.86568618 -0.20616412 3.0155153
-0.86576676 -0.20241332 3.0137689
-0.86652088 -0.20193267 3.0177705
-0.86777925 -0.20121312 3.0222733
-0.86650896 -0.20193958 3.0255206
-0.8657434 -0.20242739 3.0290189
-0.86421871 -0.20339847 3.0317659
-0.86547685 -0.20267868 3.0365186
-0.86598063 -0.20219302 3.0405197
-0.86774349 -0.20123434 3.0455232
-0.86647844 -0.20171094 3.0487709
-0.86773682 -0.20099115 3.0532734
-0.86798048 -0.20099998 3.0572736
-0.8650198 -0.19918656 3.0557709
-0.86679959 -0.19797087 3.0530248
-0.86503172 -0.19917941 3.0480208
-0.86579728 -0.19869232 3.0445225
-0.86732244 -0.19772053 3.0415256
-0.86808753 -0.1972332 3.0382774
-0.86809349 -0.19722962 3.0342772
-0.86506128 -0.19916201 3.0287709
-0.86557174 -0.1989193 3.0252719
-0.8650732 -0.19915485 3.0210209
-0.86609364 -0.19842291 3.0177732
-0.86660385 -0.1981802 3.0142741
-0.86820412 -0.19346142 3.0130308
-0.86541486 -0.19515586 3.0152752
-0.8669281 -0.19419146 3.0200284
-0.86666775 -0.19443965 3.0235279
-0.86717105 -0.19395375 3.0277789
-0.86640596 -0.19444132 3.0312774
-0.8664 -0.19444489 3.0350273
-0.86740303 -0.19396973 3.0395293
-0.86739731 -0.19397306 3.0432792
-0.86562252 -0.19493937 3.0462756
-0.86510682 -0.19543195 3.0497744
-0.86712956 -0.19397831 3.0547791
-0.86788368 -0.19349813 3.0590303
-0.86492658 -0.19168258 3.0550275
-0.86619639 -0.19095588 3.0520301
-0.86797643 -0.18973994 3.049284
-0.86747766 -0.18997574 3.045033
-0.86748385 -0.18997216 3.041033
-0.86596537 -0.19118619 3.0362797
-0.86673117 -0.19069862 3.0327811
-0.8675015 -0.18996167 3.0295329
-0.86547852 -0.19141531 3.0245285
-0.86675382 -0.19043851 3.0215313
-0.86524057 -0.19140291 3.0167782
-0.86575103 -0.1911602 3.0132792
-0.86709738 -0.18668532 3.0112853
-0.86709118 -0.1866889 3.0152855
-0.86758995 -0.18645287 3.0192864
-0.86733437 -0.18645096 3.0227859
-0.86580968 -0.18742228 3.0257828
-0.86706758 -0.18670273 3.0305355
-0.86579251 -0.18767929 3.0335326
-0.86807013 -0.18598127 3.0387876
-0.86578584 -0.18743658 3.0412829
-0.86653948 -0.18695617 3.0455344
-0.86729264 -0.18647575 3.050036
-0.86678219 -0.18671846 3.053535
-0.86702609 -0.18672752 3.0575354
-0.86761379 -0.18248892 3.0577903
-0.86888409 -0.18176198 3.0545428
-0.86661148 -0.18321013 3.0492878
-0.8678863 -0.18223381 3.0462906
-0.86535907 -0.18392634 3.0407853
-0.86688423 -0.18295479 3.0377884
-0.86663532 -0.18319607 3.0337877
-0.86689615 -0.18294787 3.0300386
-0.86740637 -0.18270493 3.0265396
-0.86690807 -0.18294072 3.0222886
-0.8656497 -0.18366075 3.0177858
-0.86843872 -0.18196583 3.0155418
-0.86573434 -0.17990756 3.0132895
-0.86699271 -0.17918777 3.017792
-0.86622763 -0.17967486 3.0210404
-0.86622143 -0.17967844 3.0250404
-0.8659606 -0.17992687 3.02879
-0.86747384 -0.17896199 3.033293
-0.86518908 -0.18041778 3.0360382
-0.86695719 -0.17920876 3.040792
-0.8646729 -0.18066359 3.0432873
-0.86517143 -0.18042827 3.0475383
-0.86491609 -0.1804266 3.0512879
-0.86718845 -0.1789782 3.0565426
-0.86599755 -0.17620158 3.0552933
-0.86549902 -0.17643714 3.0510423
-0.86600947 -0.17619443 3.0475433
-0.86753416 -0.17522311 3.0445466
-0.86653113 -0.17569828 3.0400445
-0.86805582 -0.17472696 3.0372977
-0.86628795 -0.17593598 3.032294
-0.86680388 -0.17544317 3.0287952
-0.8655405 -0.17641258 3.0240424
-0.86732006 -0.17519712 3.0215461
-0.86732602 -0.17519355 3.0175462
-0.86555839 -0.17640209 3.0125422
-0.86588812 -0.17241001 3.0145466
-0.86613727 -0.17216897 3.0182972
-0.8668859 -0.17193818 3.0225484
-0.86738992 -0.17145276 3.0267997
-0.86611938 -0.1721797 3.0300472
-0.86686826 -0.17194867 3.0340486
-0.86661243 -0.17194676 3.0377979
-0.8663516 -0.1721952 3.0415475
-0.86558604 -0.17268276 3.0450459
-0.86786366 -0.17098451 3.0503008
-0.86785746 -0.17098808 3.0543008
-0.86582303 -0.17244864 3.0567966
-0.86413217 -0.169662 3.0557964
-0.86590695 -0.16869569 3.0527999
-0.86591268 -0.16869235 3.0490499
-0.86693358 -0.16796017 3.0455523
-0.86592507 -0.1686852 3.04105
-0.86846423 -0.16698551 3.0388055
-0.86619186 -0.16843343 3.0335507
-0.86797142 -0.16721749 3.0308044
-0.86620378 -0.16842628 3.0258007
-0.86570477 -0.16866231 3.0217998
-0.86672497 -0.16793036 3.0185518
-0.86647606 -0.16817141 3.0145514
-0.86680675 -0.16442561 3.0125551
-0.86604118 -0.16491318 3.0160534
-0.86629033 -0.1646719 3.0200543
-0.86577463 -0.16516471 3.0235531
-0.86602354 -0.16492367 3.0275536
-0.86601734 -0.16492724 3.0315535
-0.86702585 -0.16420197 3.0360558
-0.86853886 -0.16323805 3.0408089
-0.86827826 -0.163486 3.0443082
-0.86675334 -0.16445708 3.0473051
-0.86598778 -0.16494489 3.0508034
-0.86598206 -0.16494823 3.0545535
-0.86597586 -0.1649518 3.0585535
-0.8668232 -0.16046596 3.055809
-0.86657405 -0.16070724 3.0520582
-0.86557055 -0.16118217 3.0475564
-0.86658621 -0.16069984 3.0440583
-0.86583257 -0.16118026 3.0398066
-0.86558914 -0.1614182 3.0320561
-0.86661005 -0.16068578 3.0285583
-0.8668704 -0.16043782 3.025059
-0.86612868 -0.16091132 3.0130572
-0.86735749 -0.16020894 3.0368099
-0.86738133 -0.16019487 3.0213099
-0.86764216 -0.15994692 3.0178106
-0.86696291 -0.15667987 3.0155625
-0.86645269 -0.15692306 3.0190613
-0.86568213 -0.15766001 3.0223098
-0.86517119 -0.15790296 3.0260587
-0.86693954 -0.1566937 3.0308125
-0.86642885 -0.15693712 3.0345614
-0.86794162 -0.15597248 3.0393147
-0.86692142 -0.15670443 3.0425625
-0.86615586 -0.15719223 3.0460608
-0.86564064 -0.15768456 3.0493097
-0.86715341 -0.1567204 3.0543127
-0.86664295 -0.15696359 3.057812
-0.86520171 -0.15418172 3.056812
-0.86774659 -0.15223193 3.0543177
-0.86673808 -0.15295696 3.0498157
-0.86674404 -0.15295362 3.0460656
-0.86649489 -0.15319443 3.0420649
-0.86574149 -0.15367484 3.0375636
-0.86574745 -0.1536715 3.0338135
-0.86625767 -0.15342879 3.0303144
-0.86677384 -0.15293574 3.0265658
-0.86551046 -0.15390563 3.0220628
-0.86551666 -0.15390205 3.0180628
-0.86704636 -0.15268064 3.0153162
-0.86611152 -0.14965892 3.0135677
-0.86534595 -0.15014648 3.017066
-0.86711359 -0.14893746 3.0220697
-0.86532879 -0.1504035 3.0248158
-0.86608243 -0.14992285 3.0290673
-0.86658621 -0.14943743 3.0333185
-0.86430192 -0.15089273 3.0358138
-0.86505508 -0.15041232 3.0400655
-0.86682367 -0.1492033 3.0448194
-0.8663075 -0.14969587 3.048568
-0.8652873 -0.1504283 3.0518157
-0.86832476 -0.14824581 3.0573223
-0.86586905 -0.14619327 3.0558205
-0.86435652 -0.14715719 3.0508173
-0.86613631 -0.14594102 3.0480711
-0.86588693 -0.14618254 3.0440705
-0.86741233 -0.14521098 3.0410738
-0.86665869 -0.14569139 3.0368221
-0.86514544 -0.14665556 3.0320687
-0.86515117 -0.14665222 3.0283189
-0.86566734 -0.14615965 3.0245702
-0.86719227 -0.14518785 3.0215733
-0.86719799 -0.14518452 3.0178232
-0.86593461 -0.1461544 3.0130703
-0.86576009 -0.14240122 3.0148234
-0.86499476 -0.14288878 3.0180721
-0.86625314 -0.14216876 3.0225747
-0.86624742 -0.1421721 3.0263247
-0.86548662 -0.14241004 3.0300734
-0.86522079 -0.14290786 3.0335724
-0.86597967 -0.14217758 3.0378242
-0.86521411 -0.14266515 3.0413227
-0.86672759 -0.14170074 3.0460758
-0.86697125 -0.14170957 3.0500762
-0.86544609 -0.14268088 3.0530732
-0.86619973 -0.14220047 3.0573246
-0.86526656 -0.1389308 3.0578263
-0.86704659 -0.13771486 3.0550799
-0.86679745 -0.13795614 3.0510795
-0.86604381 -0.13843656 3.0465779
-0.86655974 -0.13794351 3.0430791
-0.86682081 -0.13769531 3.0393298
-0.8663168 -0.13818097 3.0350783
-0.86581802 -0.13841701 3.0310774
-0.86531425 -0.13890243 3.0268261
-0.86684465 -0.13768125 3.0238297
-0.86558104 -0.13865089 3.0193269
-0.86507702 -0.13913679 3.0150754
-0.86559296 -0.13864398 3.0115769
-0.86592412 -0.13465118 3.012831
-0.86693287 -0.13392615 3.0170832
-0.86540747 -0.13489723 3.0200801
-0.86616111 -0.13441706 3.0243316
-0.86565065 -0.13465977 3.0280805
-0.86589456 -0.13466859 3.0320809
-0.86588883 -0.13467216 3.035831
-0.86588264 -0.13467574 3.0398309
-0.8653717 -0.13491845 3.04333
-0.86561584 -0.13492727 3.0473301
-0.86460066 -0.13540936 3.0505784
-0.86535382 -0.13492918 3.0550799
-0.8656795 -0.13118625 3.0563338
-0.86518097 -0.13142228 3.0520828
-0.86569667 -0.13092947 3.048584
-0.86595273 -0.13093138 3.0448346
-0.86621332 -0.13068318 3.041085
-0.86570954 -0.13116837 3.0368338
-0.86572051 -0.1309154 3.0330842
-0.86572647 -0.13091207 3.0293341
-0.86623716 -0.13066888 3.0255849
-0.86624289 -0.13066554 3.0218351
-0.86599946 -0.13065672 3.0178347
-0.8652401 -0.13138723 3.0135829
-0.86557603 -0.12739134 3.0115871
-0.86531544 -0.12763929 3.0153365
-0.86556363 -0.12739849 3.019587
-0.86632276 -0.12666821 3.0238388
-0.86606216 -0.12691617 3.0275884
-0.86630559 -0.12692499 3.0315886
-0.86503601 -0.12765169 3.034586
-0.86528468 -0.12741089 3.0385866
-0.86502409 -0.12765861 3.042336
-0.86577749 -0.12717843 3.0465877
-0.86552143 -0.12717676 3.0505874
-0.86500597 -0.12766933 3.054086
-0.86474514 -0.12791777 3.0578356
-0.8650775 -0.12392426 3.0580895
-0.86559296 -0.12343097 3.0545907
-0.86508942 -0.1239171 3.0503395
-0.86535001 -0.12366891 3.0465903
-0.86561108 -0.12342024 3.0428407
-0.8658669 -0.12342215 3.0390911
-0.86612797 -0.12317443 3.035342
-0.86461449 -0.12413836 3.0305886
-0.86589003 -0.12316179 3.0273414
-0.86665511 -0.12267447 3.0240932
-0.86640668 -0.12291527 3.0198424
-0.86691689 -0.12267256 3.0163434
-0.86591387 -0.12314773 3.0118415
-0.86573482 -0.11964417 3.0128443
-0.86674356 -0.1189189 3.0173464
-0.86521864 -0.11989021 3.0203433
-0.86622715 -0.11916542 3.0248456
-0.86546111 -0.11965322 3.0283442
-0.86646485 -0.11917782 3.0325959
-0.86569905 -0.11966515 3.0360942
-0.8659482 -0.1194241 3.0400951
-0.86619735 -0.11918306 3.0440955
-0.86542654 -0.11992025 3.0475938
-0.86593008 -0.11943483 3.0518451
-0.86440039 -0.12065601 3.0545914
-0.86675858 -0.11520696 3.0581
-0.86650991 -0.115448 3.0538495
-0.86525178 -0.11616778 3.0493469
-0.86500263 -0.11640882 3.0453463
-0.86602283 -0.11567664 3.0420985
-0.86526942 -0.11615729 3.0378468
-0.86578012 -0.11591411 3.0340979
-0.86604095 -0.11566615 3.0303485
-0.8665514 -0.11542344 3.0268495
-0.86529326 -0.11614323 3.022347
-0.86580896 -0.11565018 3.0185981
-0.86606956 -0.11540222 3.0150988
-0.86658049 -0.11515927 3.0113497
-0.86513305 -0.11238146 3.0146
-0.86614132 -0.11165667 3.0191021
-0.86588073 -0.11190462 3.0226016
-0.8656199 -0.11215281 3.026351
-0.86561894 -0.11190677 3.0303512
-0.86586261 -0.11191535 3.0343516
-0.86433768 -0.11288667 3.0373483
-0.86635566 -0.11168289 3.0423527
-0.86609483 -0.11193132 3.0461018
-0.8648243 -0.11265802 3.0493493
-0.86608791 -0.11168814 3.0538521
-0.86557174 -0.11218143 3.057601
-0.86463857 -0.10891175 3.0583527
-0.86565876 -0.10817981 3.0551047
-0.86540961 -0.10842109 3.0511041
-0.86617541 -0.10793328 3.0476058
-0.86542153 -0.10841393 3.043354
-0.86568236 -0.10816574 3.0396049
-0.86517882 -0.1086514 3.0353537
-0.86569428 -0.10815859 3.0318549
-0.86595535 -0.10791039 3.0281055
-0.86570621 -0.10815167 3.0241048
-0.8657124 -0.10814786 3.0201049
-0.86597323 -0.10789967 3.0163555
-0.86572433 -0.10814095 3.0123549
-0.86579967 -0.10439324 3.0138583
-0.86604881 -0.10415196 3.0178587
-0.86629272 -0.10416079 3.0218594
-0.86476779 -0.1051321 3.0248563
-0.86577606 -0.10440755 3.0293584
-0.86526561 -0.10464978 3.0328574
-0.86474967 -0.10514283 3.0366063
-0.86575794 -0.10441828 3.0411084
-0.86524749 -0.10466051 3.0446074
-0.86447692 -0.10539794 3.0478556
-0.86599493 -0.10418367 3.0528588
-0.86598921 -0.10418725 3.0566089
-0.86454773 -0.1014061 3.0558593
-0.8660779 -0.10018444 3.0528626
-0.86506963 -0.10090971 3.0483606
-0.86633992 -0.10018277 3.0451131
-0.86609602 -0.10017395 3.0411127
-0.86559224 -0.10065961 3.0368614
-0.86610794 -0.1001668 3.0333626
-0.8648448 -0.10113668 3.0286098
-0.8646009 -0.10112786 3.0246096
-0.86561608 -0.10064554 3.0213614
-0.86663675 -0.099913597 3.0181136
-0.86537814 -0.10063338 3.0136111
-0.86520338 -0.097127199 3.0118642
-0.86517954 -0.097141266 3.027364
-0.86491299 -0.097393036 3.0348635
-0.86489487 -0.097403765 3.0466135
-0.86489439 -0.09715724 3.0503635
-0.86570263 -0.096891165 3.0158651
-0.86645603 -0.096410751 3.0201168
-0.86620021 -0.096409082 3.0238662
-0.86593318 -0.096661091 3.0316155
-0.86668634 -0.095934153 3.0398674
-0.86617017 -0.096426725 3.0433662
-0.86640239 -0.096442699 3.0551167
-0.86589122 -0.096685886 3.0588655
-0.86521959 -0.093167782 3.0553679
-0.86421132 -0.093892574 3.0508654
-0.86599112 -0.09267664 3.0478694
-0.86548781 -0.093162298 3.0436182
-0.86625791 -0.09242487 3.04037
-0.86550498 -0.092905283 3.0358684
-0.86576557 -0.092657089 3.032119
-0.86602116 -0.092658997 3.0283694
-0.86602688 -0.092655659 3.0246193
-0.86552882 -0.092890978 3.0203683
-0.8660388 -0.092648506 3.0168693
-0.866045 -0.09264493 3.0128694
-0.8661263 -0.088646412 3.0138731
-0.8656106 -0.089139223 3.017622
-0.86560488 -0.089142561 3.0213718
-0.86534905 -0.089140654 3.0251215
-0.86508822 -0.089389324 3.0288711
-0.8650825 -0.089392662 3.0326209
-0.86609077 -0.088667631 3.0371232
-0.8650701 -0.089400053 3.040621
-0.86506438 -0.089403391 3.0443709
-0.86505818 -0.089406967 3.0483711
-0.86505198 -0.089410782 3.052371
-0.86529565 -0.089419365 3.0563712
-0.86588287 -0.085181475 3.057126
-0.86589408 -0.084927797 3.0531263
-0.86437583 -0.086142063 3.048373
-0.86514664 -0.085404873 3.0448749
-0.86514735 -0.085651159 3.0408745
-0.86515331 -0.085647583 3.0371246
-0.86464953 -0.086133242 3.0328732
-0.86516547 -0.08564043 3.0291245
-0.86568141 -0.085147381 3.0256257
-0.86543226 -0.08538866 3.021625
-0.86619735 -0.084901571 3.0183768
-0.86518931 -0.085626364 3.0136247
-0.86603451 -0.08114171 3.0123799
-0.86602831 -0.081145287 3.0163798
-0.86526299 -0.081632376 3.019628
-0.86551213 -0.081391335 3.023629
-0.86525083 -0.081639767 3.0276282
-0.8652451 -0.081643105 3.0313783
-0.86574364 -0.081407547 3.0356293
-0.86523318 -0.081650257 3.0391281
-0.86522698 -0.081653833 3.0431283
-0.86471128 -0.082146645 3.046627
-0.86496043 -0.081905603 3.0506277
-0.86495924 -0.081659079 3.0546279
-0.86469865 -0.081907272 3.0583773
-0.8645215 -0.078402758 3.0581303
-0.86528707 -0.07791543 3.0546317
-0.86580276 -0.07742238 3.0511329
-0.86479425 -0.078147411 3.0466309
-0.86555982 -0.077659845 3.0431325
-0.86607552 -0.077167273 3.0396338
-0.86481237 -0.078136683 3.0348809
-0.86532831 -0.077643871 3.031132
-0.86457491 -0.078124046 3.0268803
-0.86660409 -0.076913595 3.0241346
-0.86534595 -0.077633381 3.0196319
-0.86509681 -0.07787466 3.0156314
-0.86560774 -0.077631474 3.0118825
-0.86543822 -0.073629141 3.0136359
-0.86492229 -0.074121714 3.0173845
-0.86491656 -0.074125051 3.0211346
-0.8654201 -0.073639631 3.0253859
-0.86591935 -0.073403597 3.0293868
-0.86515284 -0.073891163 3.0331352
-0.86565733 -0.073405266 3.0371366
-0.86590123 -0.073414326 3.0411367
-0.86614966 -0.073173523 3.0453875
-0.86588931 -0.07342124 3.0488868
-0.86512327 -0.073908806 3.0523851
-0.86511707 -0.073912382 3.056385
-0.86544919 -0.069919348 3.0571394
-0.86469603 -0.070399284 3.0526376
-0.86596584 -0.069672823 3.0496404
-0.86496258 -0.070147991 3.0451384
-0.86547303 -0.069905043 3.0416393
-0.86446476 -0.070629835 3.0368872
-0.86548519 -0.06989789 3.0336394
-0.86549139 -0.069894314 3.0296392
-0.86600184 -0.069651365 3.0261402
-0.86601305 -0.069397926 3.0223906
-0.86550903 -0.069883823 3.0181394
-0.86526036 -0.070124626 3.0138886
-0.86584949 -0.065885305 3.0131433
-0.86508417 -0.066372633 3.0166421
-0.86609268 -0.065647602 3.0211442
-0.86583638 -0.065645933 3.0251436
-0.86532116 -0.066138506 3.0283926
-0.86455512 -0.066626549 3.0321407
-0.86480427 -0.066385031 3.0361414
-0.86530304 -0.066149235 3.0401425
-0.86555195 -0.065908432 3.0441432
-0.86630535 -0.065428019 3.0486445
-0.86478043 -0.066399336 3.0516415
-0.86502409 -0.066408157 3.0556419
-0.86510634 -0.062409639 3.0561457
-0.86485744 -0.062650681 3.052145
-0.86638236 -0.061679125 3.0491481
-0.8653791 -0.062154293 3.0446463
-0.86538529 -0.062150717 3.0406463
-0.86564112 -0.062152386 3.0368967
-0.86514211 -0.06238842 3.0328956
-0.8651433 -0.062634468 3.0286453
-0.8648994 -0.062625647 3.0248952
-0.86668468 -0.061159849 3.0218992
-0.8661809 -0.061645269 3.017648
-0.86567736 -0.062131166 3.0133967
-0.86601734 -0.057885647 3.0119011
-0.86499715 -0.058617592 3.0151489
-0.86575055 -0.058137655 3.0196502
-0.86599946 -0.057896376 3.0236511
-0.86573863 -0.058144808 3.0274003
-0.86573291 -0.058148146 3.0311503
-0.86547184 -0.058396339 3.0349
-0.86572576 -0.057905436 3.0391505
-0.86571503 -0.058158875 3.0429003
-0.86469436 -0.058891058 3.0461481
-0.8659575 -0.057921171 3.0509009
-0.86519194 -0.058408737 3.0543993
-0.86518598 -0.058412313 3.0583994
-0.86450934 -0.054897547 3.0579016
-0.86350083 -0.055622101 3.0533993
-0.86553597 -0.054161549 3.0506539
-0.86528683 -0.05440259 3.0466533
-0.86478782 -0.054638624 3.0426521
-0.86580372 -0.054156303 3.0391541
-0.86429095 -0.05512023 3.0341511
-0.86556053 -0.05439353 3.0311537
-0.86531687 -0.054384708 3.0271533
-0.8658278 -0.054141998 3.0234041
-0.86456418 -0.055111647 3.0189013
-0.86508012 -0.054618597 3.0151525
-0.86567044 -0.050378799 3.0136573
-0.86566424 -0.050382376 3.0176573
-0.86591363 -0.050141335 3.0216579
-0.86565232 -0.05038929 3.0254073
-0.86590171 -0.050148487 3.029408
-0.86564016 -0.050396681 3.0334072
-0.86563444 -0.050400019 3.0371573
-0.86461425 -0.051132202 3.040405
-0.86537266 -0.050401926 3.0449071
-0.86536145 -0.050655127 3.0486567
-0.86485052 -0.050898314 3.0524058
-0.8643353 -0.051390886 3.0559044
-0.86619687 -0.04592967 3.0571623
-0.86594844 -0.046170473 3.0529118
-0.86519456 -0.046650887 3.04866
-0.86571026 -0.046158314 3.0451612
-0.86520648 -0.046643972 3.04091
-0.86470294 -0.047129631 3.036659
-0.8652184 -0.04663682 3.0331602
-0.86572933 -0.046393871 3.0294111
-0.8644712 -0.047113657 3.0249085
-0.86498165 -0.046870708 3.0211594
-0.86498785 -0.046867132 3.0171595
-0.86473894 -0.047108412 3.0131588
-0.86557817 -0.042626858 3.0156641
-0.86608219 -0.042141199 3.0199156
-0.86556625 -0.04263401 3.0234141
-0.8642962 -0.04336071 3.0266619
-0.86453986 -0.043369532 3.0306621
-0.8660531 -0.042405605 3.0354154
-0.86529255 -0.042642832 3.038914
-0.86528659 -0.042646408 3.0429139
-0.86502528 -0.04289484 3.0466633
-0.86501932 -0.042898417 3.0506632
-0.86526322 -0.042907 3.0546637
-0.86576676 -0.042421579 3.0589149
-0.86559963 -0.038664103 3.0556679
-0.86535072 -0.038905382 3.0516675
-0.86485243 -0.03914094 3.0474162
-0.86612749 -0.038164377 3.0441692
-0.86511397 -0.039139271 3.0396669
-0.86538029 -0.038640976 3.0359178
-0.86563611 -0.038642406 3.031918
-0.8653872 -0.038883686 3.0279174
-0.86564803 -0.038635492 3.024168
-0.86565399 -0.038631916 3.0204179
-0.86540484 -0.038873196 3.0164175
-0.86566591 -0.038625002 3.0126679
-0.86600113 -0.034382582 3.0144224
-0.8649807 -0.035114765 3.0176702
-0.86446548 -0.035607338 3.0211689
-0.86598349 -0.034393072 3.0259225
-0.86521268 -0.035130739 3.0294206
-0.86647582 -0.034161091 3.0341735
-0.86622024 -0.034159422 3.0379229
-0.86519456 -0.035141468 3.0411706
-0.8646841 -0.035384417 3.0449197
-0.86544251 -0.03465414 3.0494213
-0.86365771 -0.036120176 3.0521672
-0.86441088 -0.035639763 3.056669
-0.86500263 -0.03115201 3.0574238
-0.86576843 -0.030664444 3.0539255
-0.86526966 -0.030900002 3.0496747
-0.86578035 -0.03065753 3.0461755
-0.86578631 -0.030653715 3.0421755
-0.86477804 -0.031378508 3.0376735
-0.86579823 -0.030646801 3.0344255
-0.86479044 -0.031371355 3.0296733
-0.86530566 -0.030878544 3.0261745
-0.86480236 -0.031364202 3.0219235
-0.86556768 -0.030876637 3.018425
-0.86557388 -0.030872822 3.0144248
-0.86616564 -0.026385307 3.01543
-0.86564994 -0.026878119 3.0189288
-0.86589885 -0.026636839 3.0229294
-0.86487842 -0.027369261 3.026427
-0.86512709 -0.027128458 3.0304277
-0.8648665 -0.027376413 3.0341771
-0.8661294 -0.026406765 3.0389299
-0.86333537 -0.028351784 3.0411739
-0.86510301 -0.027142763 3.0461776
-0.86484218 -0.027390718 3.049927
-0.86483645 -0.027394056 3.0536771
-0.86584449 -0.026669025 3.0584295
-0.86491609 -0.023396969 3.0559309
-0.86339808 -0.024611235 3.0509274
-0.86543751 -0.02290082 3.0484321
-0.86416936 -0.024119854 3.0434289
-0.86519003 -0.023387909 3.0401814
-0.86596084 -0.022650242 3.0366833
-0.86368322 -0.024348259 3.0314281
-0.86495352 -0.023621798 3.0281806
-0.86521435 -0.023373604 3.0244312
-0.86471558 -0.0236094 3.0204303
-0.86573601 -0.022877216 3.0169325
-0.86650181 -0.022389889 3.0134342
-0.86506271 -0.019360065 3.0144346
-0.86581635 -0.018879652 3.0186863
-0.86606479 -0.018638611 3.0229368
-0.86428499 -0.019854546 3.0256829
-0.86452889 -0.019863605 3.0296834
-0.86351347 -0.020345926 3.0331814
-0.86452174 -0.019620895 3.0376837
-0.86426067 -0.019869089 3.0414331
-0.86551905 -0.019149303 3.0459356
-0.86526346 -0.019147396 3.0496855
-0.86322856 -0.020608425 3.0524309
-0.86398196 -0.020127773 3.0569324
-0.86507845 -0.015400887 3.0581884
-0.86533904 -0.015152693 3.0544388
-0.86433053 -0.015877724 3.0499368
-0.86560583 -0.014901161 3.0469396
-0.86484766 -0.01563096 3.0424378
-0.86510849 -0.015383005 3.0386884
-0.86460447 -0.015868902 3.0344372
-0.86486554 -0.015620232 3.0306878
-0.86461639 -0.01586175 3.0266874
-0.8653872 -0.015124321 3.0231888
-0.86513877 -0.015365124 3.0189385
-0.86564898 -0.015122414 3.0154395
-0.86565518 -0.015118837 3.0114393
-0.86573768 -0.011119843 3.0116932
-0.86522722 -0.011362553 3.0154424
-0.86547589 -0.011121511 3.0194428
-0.86673403 -0.010402203 3.0241954
-0.86470437 -0.011612892 3.0269411
-0.86545777 -0.01113224 3.0311928
-0.86443734 -0.011864424 3.0344405
-0.86519098 -0.01138401 3.0389423
-0.86568928 -0.011148453 3.0431933
-0.86644793 -0.010418177 3.0476952
-0.8664422 -0.010421753 3.0514452
-0.86491203 -0.011642933 3.0544415
-0.86440086 -0.01188612 3.0581906
-0.86524916 -0.0073997974 3.0551958
-0.86424017 -0.0081250668 3.0509436
-0.86424661 -0.0081212521 3.0466938
-0.86450219 -0.008122921 3.0429442
-0.86552262 -0.007390976 3.0396965
-0.86400962 -0.0083551407 3.0349433
-0.86503005 -0.0076229572 3.0316954
-0.86529136 -0.0073747635 3.0276959
-0.86504245 -0.0076158047 3.0236955
-0.86580753 -0.0071284771 3.0201972
-0.86530948 -0.0073640347 3.0159459
-0.86632967 -0.0066318512 3.0126982
-0.86590505 -0.0028738976 3.0142009
-0.86589408 -0.0031273365 3.0179505
-0.86538363 -0.0033700466 3.0216997
-0.86512232 -0.0036182404 3.0256991
-0.86460614 -0.0041115284 3.0291977
-0.8651104 -0.0036253929 3.0334492
-0.86560917 -0.0033895969 3.0374501
-0.86560798 -0.003143549 3.0414505
-0.86509228 -0.0036361217 3.0451992
-0.86508608 -0.003639698 3.0491991
-0.86634922 -0.0026702881 3.053952
-0.86405945 -0.0043754578 3.0564468
-0.8643949 -0.00013327599 3.0582013
-0.86592507 0.001087904 3.0552046
-0.86465645 -0.00013136864 3.0504515
-0.86466742 0.00012159348 3.0467019
-0.86517882 0.00036501884 3.0429528
-0.86721325 0.0018255711 3.0402074
-0.86493564 0.0001270771 3.0349524
-0.86545181 0.00062036514 3.0312035
-0.86469793 0.00013971329 3.0269518
-0.864959 0.00038790703 3.0232024
-0.8652153 0.00038647652 3.0192027
-0.86572552 0.00062918663 3.0157039
-0.86573172 0.00063276291 3.011704
-0.86581826 0.0048809052 3.0127077
-0.8663168 0.0051169395 3.016959
-0.86478639 0.0038955212 3.0199554
-0.86453104 0.0038971901 3.0237052
-0.86503458 0.0043828487 3.0279562
-0.86477351 0.004134655 3.0317056
-0.86476731 0.0041308403 3.0357056
-0.86526632 0.0043668747 3.0399566
-0.86348605 0.0031509399 3.0427027
-0.86474419 0.0038704872 3.0474553
-0.86397886 0.0033829212 3.0509536
-0.865242 0.0043525696 3.0557065
-0.86532378 0.0083508492 3.0564604
-0.86533046 0.0083546638 3.0522103
-0.8648262 0.0078690052 3.0479593
-0.86584687 0.0086011887 3.0447114
-0.86433363 0.0076367855 3.0399582
-0.86509919 0.0081243515 3.0364599
-0.86561561 0.0086174011 3.032711
-0.8646071 0.0078921318 3.0282087
-0.86512256 0.0083847046 3.0247102
-0.86537886 0.0083835125 3.0207105
-0.86512971 0.0081422329 3.01671
-0.86513591 0.0081458092 3.0127099
-0.86548066 0.012640715 3.0117145
-0.86547494 0.012637377 3.0154645
-0.8662281 0.013117552 3.0199661
-0.86520791 0.01238513 3.0232136
-0.86571145 0.012871265 3.0274649
-0.86519551 0.012377977 3.0312138
-0.86417508 0.011646032 3.0344615
-0.86467385 0.011881828 3.0387125
-0.86416316 0.011639118 3.0422115
-0.8641572 0.011635303 3.0462115
-0.8661797 0.013088703 3.0514662
-0.86541414 0.012601376 3.0549645
-0.86464357 0.011863947 3.0584626
-0.86549067 0.016596556 3.0592182
-0.86498713 0.016111135 3.0547171
-0.86550283 0.016603708 3.0512183
-0.86550903 0.016607285 3.0472183
-0.86601949 0.016850233 3.0437193
-0.86501098 0.016125202 3.039217
-0.86577702 0.016612768 3.0354686
-0.86527824 0.016377211 3.0314677
-0.86502934 0.016136169 3.0272171
-0.8655405 0.016379356 3.023468
-0.8652966 0.016388178 3.0194676
-0.86580706 0.01663065 3.0159686
-0.86589909 0.02088213 3.0134726
-0.86589336 0.020878792 3.0172226
-0.86613703 0.02086997 3.0212231
-0.86486697 0.020142794 3.0244703
-0.8646059 0.019895077 3.0282197
-0.86535931 0.020375013 3.0327213
-0.86586285 0.02086091 3.0369725
-0.86484265 0.020128489 3.0402205
-0.86432648 0.019635677 3.0439692
-0.86508012 0.020116091 3.0482206
-0.86456919 0.019873381 3.0519698
-0.86304426 0.018901587 3.0549667
-0.8643899 0.02362299 3.0567229
-0.86617517 0.025089502 3.0537271
-0.86516666 0.024364233 3.0492246
-0.86542749 0.024612427 3.0454755
-0.86441398 0.023637295 3.0409727
-0.86442542 0.023891211 3.036973
-0.86620569 0.025107384 3.033977
-0.86570144 0.024621487 3.0299757
-0.8646934 0.023896933 3.0252235
-0.8646996 0.023900509 3.0212235
-0.86394572 0.023419857 3.0169718
-0.86522126 0.02439642 3.0137248
-0.86504745 0.028150082 3.0149777
-0.86478639 0.027901649 3.0187273
-0.86503553 0.028142929 3.0227277
-0.86528397 0.028383732 3.0269785
-0.86476827 0.027890921 3.0304773
-0.86578155 0.028865576 3.0352297
-0.86551595 0.028367758 3.038729
-0.86475515 0.028130293 3.0424776
-0.86576366 0.028854847 3.0469797
-0.86524773 0.028362274 3.0504785
-0.86498713 0.028114319 3.0542278
-0.86523557 0.028355122 3.0584786
-0.86531758 0.03235364 3.0589824
-0.86329508 0.030900478 3.0537279
-0.86558461 0.03260541 3.0512328
-0.86457634 0.031880379 3.0467308
-0.8648324 0.031879187 3.042731
-0.86534834 0.032371759 3.0389824
-0.86459494 0.031891346 3.0347307
-0.86561537 0.032623768 3.0312328
-0.86613131 0.033116579 3.0277343
-0.86486793 0.032146931 3.0229814
-0.86512399 0.032145023 3.0192316
-0.86411524 0.031420231 3.0147295
-0.86589551 0.032636404 3.0117333
-0.86597872 0.036882639 3.0149872
-0.86622238 0.036873579 3.0189877
-0.86622143 0.037119865 3.0229878
-0.86545062 0.036382675 3.0264862
-0.86544442 0.03637886 3.0304861
-0.86620355 0.037109137 3.0347378
-0.86492801 0.036132574 3.0379848
-0.86492181 0.036128998 3.041985
-0.86364627 0.035152197 3.0452323
-0.86313009 0.034659147 3.048981
-0.86464858 0.035873413 3.0537345
-0.86540675 0.036603212 3.0582364
-0.86396623 0.03938508 3.0572367
-0.86448145 0.039877653 3.0537379
-0.86473727 0.039875746 3.0499883
-0.8644886 0.039634943 3.0457375
-0.86525965 0.04037261 3.0422394
-0.86425066 0.039647579 3.0377374
-0.86578131 0.040868521 3.0347407
-0.86552739 0.040377855 3.0304897
-0.8655386 0.040631533 3.02649
-0.86528492 0.04014039 3.0224893
-0.86504126 0.04014945 3.0182388
-0.86580682 0.040637016 3.0147405
-0.86615252 0.045132399 3.0132449
-0.86538696 0.044644833 3.0167437
-0.86436105 0.043662786 3.0199909
-0.8646102 0.043903828 3.0239916
-0.86587334 0.044873238 3.0287445
-0.86510801 0.04438591 3.0322428
-0.86484718 0.044137716 3.0359921
-0.86484051 0.044133902 3.0402422
-0.86584878 0.044858694 3.0447445
-0.86482859 0.044126987 3.0479922
-0.86456752 0.043878555 3.0517416
-0.86456132 0.043874979 3.0557415
-0.86515403 0.048363209 3.0562468
-0.86490536 0.048122168 3.051996
-0.86440659 0.04788661 3.047745
-0.86517239 0.048374176 3.0442467
-0.86593795 0.048861265 3.0407484
-0.86518478 0.048381567 3.0362465
-0.86493587 0.048140287 3.0322459
-0.86595631 0.048872232 3.0287483
-0.86418867 0.047663689 3.0237446
-0.8652041 0.048146248 3.0202465
-0.86571956 0.048638582 3.0167477
-0.865731 0.048892021 3.0127478
-0.86505103 0.052405357 3.01475
-0.8658042 0.052885771 3.0190017
-0.8665576 0.053365946 3.0235033
-0.86502767 0.052144527 3.0264997
-0.86477184 0.052146196 3.0302496
-0.86603498 0.053115606 3.0350022
-0.86475945 0.052139044 3.0382495
-0.86449838 0.05189085 3.0419989
-0.8670311 0.053833723 3.0475044
-0.86499643 0.052372932 3.0502501
-0.86499023 0.052369356 3.05425
-0.86548877 0.052605152 3.058501
-0.86430216 0.055630922 3.0577519
-0.86430836 0.055634737 3.0537519
-0.8650744 0.056122303 3.0500035
-0.86457515 0.055886507 3.0460026
-0.86509132 0.056379318 3.0422537
-0.86560774 0.056872368 3.0385051
-0.86510372 0.056386471 3.0342538
-0.86561465 0.056629419 3.0305047
-0.86486077 0.056149244 3.026253
-0.86512184 0.0563972 3.0225039
-0.86538291 0.056645632 3.0185044
-0.86614871 0.057133198 3.0150058
-0.86598015 0.060889721 3.0125091
-0.86597395 0.060886145 3.0165091
-0.86546326 0.060643673 3.0202582
-0.86596704 0.061128855 3.0245092
-0.8649416 0.060146809 3.0277569
-0.8649354 0.060143232 3.0317569
-0.86391497 0.059411287 3.0350049
-0.864923 0.060135841 3.039757
-0.86542678 0.060621977 3.044008
-0.86491632 0.060379028 3.047507
-0.86389041 0.059396744 3.0510046
-0.86464882 0.060126781 3.0555067
-0.8644743 0.063879728 3.0572598
-0.86346626 0.063154697 3.0525074
-0.8644917 0.064136982 3.0492599
-0.86474705 0.064135075 3.0455103
-0.86526346 0.064628124 3.0417616
-0.86552429 0.064876318 3.038012
-0.86451101 0.063901663 3.0332599
-0.86578655 0.064878225 3.0300126
-0.86681199 0.06586051 3.0267651
-0.86579895 0.064885616 3.0220127
-0.86580467 0.064888954 3.0182626
-0.86556077 0.064898014 3.0142622
-0.86538863 0.068652153 3.0142653
-0.86563706 0.068893194 3.0185161
-0.86461711 0.068161249 3.0217638
-0.86765385 0.070343256 3.0275204
-0.86511421 0.068642855 3.030015
-0.86408877 0.067661047 3.0332625
-0.86433744 0.067902088 3.037513
-0.86509061 0.068382025 3.0420148
-0.86432505 0.067894697 3.0455132
-0.86482859 0.068380117 3.0497644
-0.86405802 0.067642927 3.0532625
-0.86329269 0.0671556 3.056761
-0.86439466 0.071885824 3.0542669
-0.86465573 0.072134018 3.0505173
-0.86440706 0.071892977 3.0462668
-0.86492229 0.072386026 3.042768
-0.86416912 0.071905136 3.0385165
-0.86645365 0.073360682 3.0357711
-0.86519575 0.072641373 3.0310187
-0.86570668 0.072884321 3.0272698
-0.86495256 0.072403908 3.0230181
-0.86597395 0.073136091 3.0195203
-0.86598015 0.073139668 3.0155203
-0.86632419 0.077634335 3.014775
-0.86530352 0.076901913 3.0182726
-0.86478758 0.076409101 3.0220215
-0.8660512 0.07737875 3.0265243
-0.86477566 0.076401949 3.0297713
-0.86578369 0.07712698 3.0345237
-0.86476326 0.076394796 3.0377715
-0.86551666 0.076874971 3.042273
-0.86424112 0.07589817 3.0455203
-0.86677384 0.077840805 3.0510259
-0.8642292 0.075891256 3.0532703
-0.86346364 0.07540369 3.0567687
-0.86583209 0.081105471 3.0570273
-0.86609292 0.081353664 3.0532782
-0.86457968 0.0803895 3.0485249
-0.86483598 0.080387831 3.0445251
-0.8640821 0.079907179 3.0402737
-0.86586261 0.08112359 3.0372775
-0.86434984 0.080159187 3.0322742
-0.86562538 0.081135988 3.0290272
-0.86588097 0.081134558 3.0252774
-0.86563754 0.081143379 3.0210271
-0.86411905 0.079929113 3.0162735
-0.86564946 0.081150293 3.0132771
-0.86573529 0.085150957 3.0115309
-0.86521912 0.084658623 3.0150294
-0.86597776 0.085388899 3.0195315
-0.86622667 0.085629463 3.0237823
-0.86596537 0.085381508 3.0275314
-0.8651998 0.084893703 3.0310297
-0.86417437 0.083911657 3.0342774
-0.86569262 0.085125685 3.0392809
-0.86594129 0.085367203 3.0432816
-0.86416125 0.084150791 3.0462775
-0.86440516 0.08414197 3.0502782
-0.86490846 0.084627628 3.0547793
-0.86499619 0.088876486 3.0550334
-0.86576176 0.089363575 3.0515349
-0.86576796 0.08936739 3.0475347
-0.86373997 0.087664366 3.0422802
-0.86476541 0.088646173 3.0390327
-0.8642621 0.088160753 3.0345314
-0.86350846 0.087680101 3.0302799
-0.86325479 0.087189436 3.0260291
-0.86377597 0.087932348 3.0222805
-0.86377692 0.087686062 3.0182803
-0.86581707 0.089396477 3.0155349
-0.86582279 0.089399815 3.0117848
-0.86436963 0.092174292 3.0185354
-0.86563325 0.09314394 3.0230381
-0.86512256 0.09290123 3.026787
-0.86536455 0.093138218 3.0350378
-0.86484933 0.092645645 3.0385365
-0.86484313 0.092642069 3.0425365
-0.8625536 0.090936661 3.0450315
-0.86584544 0.093363285 3.0510385
-0.86482453 0.092631102 3.0545363
-0.8645637 0.092382908 3.0582857
-0.86641002 0.093884945 3.0157897
-0.86638594 0.09387064 3.0315399
-0.86439657 0.096387148 3.0582891
-0.86541677 0.097119331 3.0550416
-0.86592841 0.09736228 3.0510423
-0.86416054 0.096153498 3.0460386
-0.86467624 0.096646309 3.0425398
-0.86646152 0.098112345 3.0395439
-0.86519337 0.096893072 3.0347908
-0.86570907 0.097385883 3.0310419
-0.86520553 0.096900463 3.0267909
-0.86445189 0.09642005 3.0222893
-0.86471295 0.096668005 3.0185399
-0.86547828 0.097155809 3.0150414
-0.86480403 0.10067201 3.0132935
-0.86454821 0.10067391 3.0170431
-0.86530209 0.10115457 3.0212948
-0.86479139 0.10091138 3.025044
-0.8632555 0.099440098 3.0280399
-0.86731768 0.10285044 3.0345495
-0.8655324 0.1013844 3.0372956
-0.86527133 0.10113621 3.0412948
-0.86526513 0.10113263 3.0452948
-0.86449933 0.10064507 3.0487931
-0.86652231 0.10209846 3.0540476
-0.86422729 0.10014343 3.0565424
-0.86431599 0.10439253 3.0562966
-0.8653419 0.10537481 3.0527987
-0.86559725 0.10537314 3.0490491
-0.86534882 0.1051321 3.0447986
-0.86459517 0.10465169 3.0405469
-0.86358714 0.10392666 3.0357947
-0.866642 0.10636616 3.0335517
-0.86486888 0.10490727 3.0285478
-0.86588955 0.1056397 3.0250499
-0.86539102 0.10540414 3.0207989
-0.86539721 0.10540771 3.016799
-0.86565256 0.10540581 3.0130491
-0.86573696 0.10965252 3.0155532
-0.86522126 0.10915971 3.019052
-0.86597991 0.10988998 3.0235538
-0.86521435 0.10940266 3.0270522
-0.86596775 0.10988283 3.031554
-0.86596155 0.10987902 3.0355539
-0.86570048 0.10963082 3.0393031
-0.86341095 0.10792589 3.0417981
-0.86365438 0.10791659 3.0460486
-0.86542749 0.10937548 3.0510526
-0.86415672 0.10864854 3.0545499
-0.86398363 0.11240244 3.0550532
-0.86551428 0.11362362 3.0520566
-0.86552072 0.11362767 3.0478065
-0.8637526 0.11241889 3.0428026
-0.8650229 0.11314559 3.0395553
-0.86604834 0.11412764 3.0363078
-0.86478519 0.11315823 3.0315552
-0.86580586 0.11389017 3.0280571
-0.86555767 0.11364937 3.0238066
-0.86480355 0.11316919 3.0195551
-0.86480975 0.11317277 3.0155551
-0.86684513 0.11463308 3.0128093
-0.86616707 0.11814761 3.0130615
-0.8646419 0.11717629 3.0163083
-0.86615467 0.11814046 3.0210614
-0.86488438 0.11741352 3.0243092
-0.86588764 0.11788869 3.028811
-0.86537695 0.11764598 3.0325601
-0.86460662 0.11690807 3.0360582
-0.86587429 0.11812758 3.0408113
-0.86383438 0.11641717 3.0435565
-0.8643384 0.11690283 3.0478077
-0.86838961 0.1198132 3.0543168
-0.86457586 0.11688995 3.0560582
-0.86517096 0.12162662 3.0580635
-0.86466718 0.12114143 3.0538123
-0.86492825 0.12138963 3.0498128
-0.86544442 0.12188268 3.0460639
-0.86570525 0.12213087 3.0423145
-0.86469173 0.12115598 3.0378122
-0.86393833 0.12067556 3.0333107
-0.86622834 0.12238073 3.0305655
-0.8657248 0.12189555 3.0263143
-0.86471653 0.12117052 3.0218122
-0.8657372 0.1219027 3.0183144
-0.86422396 0.12093806 3.0135612
-0.86608458 0.12639928 3.0153189
-0.86531949 0.12591147 3.0188174
-0.86556768 0.12615252 3.023068
-0.86530709 0.12590432 3.0268176
-0.86530089 0.12590075 3.0308175
-0.8647902 0.12565756 3.0345664
-0.86528873 0.12589335 3.0388174
-0.86502767 0.12564516 3.0425668
-0.86527634 0.12588596 3.0468175
-0.86552477 0.126127 3.0510678
-0.8660233 0.1263628 3.0553188
-0.86433101 0.12914848 3.055069
-0.86459208 0.12939692 3.0513196
-0.86332893 0.12842727 3.0465667
-0.86587381 0.13037729 3.0440724
-0.86537504 0.1301415 3.0398216
-0.86411238 0.12917209 3.0348186
-0.86538792 0.13014913 3.0315716
-0.86462903 0.12941885 3.0273197
-0.86590981 0.13064551 3.0240726
-0.86439157 0.12943125 3.0190692
-0.86693645 0.13138151 3.0165749
-0.86541367 0.12991738 3.0115712
-0.86575317 0.13440919 3.0138259
-0.86549234 0.134161 3.017575
-0.86548615 0.13415742 3.021575
-0.8672595 0.13561606 3.0265791
-0.86496997 0.13391089 3.0290742
-0.86521292 0.13390183 3.0333247
-0.86393785 0.13292551 3.0363216
-0.86520076 0.13389444 3.0413246
-0.86494541 0.13389635 3.0450742
-0.8639195 0.13291454 3.0483217
-0.86670685 0.13510156 3.0540779
-0.86492682 0.13388538 3.0570741
-0.8650136 0.13813376 3.0578282
-0.86603403 0.13886595 3.0545802
-0.86477137 0.13789678 3.0495775
-0.86528707 0.13838959 3.0458288
-0.86503839 0.13814855 3.0418282
-0.86605906 0.13888073 3.0383303
-0.86454058 0.13766646 3.033577
-0.86429191 0.13742542 3.0293262
-0.86556745 0.13840246 3.0260792
-0.86557889 0.1386559 3.0220795
-0.86507511 0.13817024 3.0178282
-0.86559105 0.13866329 3.0140793
-0.86516595 0.14217377 3.0128319
-0.86643338 0.14339304 3.0178351
-0.86642241 0.14314008 3.0215847
-0.86565733 0.14265227 3.0250833
-0.86463618 0.14192009 3.0285811
-0.8664093 0.14337873 3.0335851
-0.86767244 0.14434838 3.0383379
-0.86410832 0.14142013 3.0400796
-0.86537647 0.14263916 3.0450828
-0.8648603 0.14214635 3.0488315
-0.86459923 0.14189816 3.0525811
-0.86306882 0.14067674 3.0558274
-0.86442828 0.14590001 3.0553343
-0.86646342 0.1473608 3.0523386
-0.86418581 0.14566255 3.0470836
-0.86368203 0.14517713 3.0428324
-0.86495805 0.1461544 3.0393353
-0.86318994 0.14494538 3.0343316
-0.86573482 0.14689517 3.0318372
-0.86472631 0.14617038 3.0273349
-0.86523747 0.14641333 3.023586
-0.8660028 0.14690089 3.0200875
-0.86550474 0.14666533 3.0155866
-0.86584806 0.15115905 3.0155914
-0.86533761 0.15091634 3.0190902
-0.8643167 0.15018415 3.022588
-0.86532044 0.15065932 3.0270898
-0.86607862 0.1513896 3.0315919
-0.86607242 0.15138578 3.0355918
-0.86556149 0.1511426 3.0393407
-0.8642807 0.14991593 3.0425878
-0.86554432 0.15088558 3.0470905
-0.86503386 0.15064287 3.0508397
-0.86477232 0.1503942 3.0548389
-0.86536598 0.15488338 3.0545938
-0.86461258 0.15440297 3.0500922
-0.86512375 0.15464592 3.0463433
-0.86512971 0.15464973 3.0423434
-0.86463118 0.15441394 3.0380921
-0.86438203 0.1541729 3.0340917
-0.86514831 0.15466046 3.0303435
-0.86464953 0.15442491 3.0260923
-0.86693907 0.15613008 3.0235975
-0.8654213 0.15491605 3.018594
-0.86593747 0.15540886 3.0148451
-0.86501098 0.15892959 3.014097
-0.86551523 0.15941525 3.0183482
-0.86448932 0.15843344 3.0215957
-0.86372399 0.15794587 3.0250943
-0.86549187 0.15915442 3.030098
-0.86345696 0.15769386 3.0328434
-0.86421037 0.15817428 3.0373452
-0.86496854 0.15890431 3.041847
-0.86597729 0.15962934 3.046349
-0.86470175 0.15865231 3.0495963
-0.8654604 0.15938282 3.0540981
-0.86366963 0.15766644 3.0570939
-0.8635025 0.16167092 3.0570972
-0.86579776 0.16362643 3.0543525
-0.86503911 0.16289616 3.0498509
-0.86504531 0.16289973 3.0458508
-0.86683059 0.16436601 3.0428548
-0.86455297 0.16266799 3.0375996
-0.86532426 0.16340542 3.0338516
-0.86431074 0.16243052 3.0293491
-0.86431694 0.16243434 3.0253491
-0.86457276 0.16243267 3.0213494
-0.86483884 0.16293073 3.0176003
-0.86560464 0.16341829 3.014102
-0.86619973 0.16790795 3.012857
-0.86619353 0.16790438 3.0168571
-0.8644135 0.16668844 3.0198531
-0.86491179 0.16692376 3.0241041
-0.86567068 0.16765404 3.0286062
-0.86616898 0.16788983 3.0328569
-0.86464357 0.16691828 3.0358536
-0.86387277 0.16618085 3.039602
-0.86437678 0.16666651 3.0438533
-0.86563993 0.16763592 3.0486062
-0.86436439 0.16665912 3.0518532
-0.86511731 0.16713929 3.0563548
-0.86520505 0.17138815 3.0566087
-0.86445189 0.17090797 3.0521071
-0.86242414 0.16920471 3.0468526
-0.86522889 0.17164898 3.0446088
-0.86573982 0.17189193 3.0408599
-0.86244273 0.16921568 3.0348525
-0.86371803 0.17019248 3.0316055
-0.86499381 0.17116928 3.0281081
-0.86550975 0.17166209 3.0246093
-0.86577106 0.17191052 3.0206099
-0.86552191 0.17166948 3.0166094
-0.86527324 0.17142844 3.0123587
-0.86510801 0.17568088 3.0146122
-0.86510181 0.17567706 3.0186124
-0.86509585 0.17567348 3.0226123
-0.86331034 0.17420721 3.0256083
-0.86660743 0.17688394 3.031616
-0.86431265 0.17492867 3.0341105
-0.86456132 0.17516947 3.0383611
-0.86557484 0.17614484 3.0428636
-0.86505365 0.17540145 3.046612
-0.8650527 0.17564797 3.0506122
-0.86428714 0.17516017 3.0541108
-0.86310029 0.17818618 3.0536118
-0.86412621 0.17916846 3.0501142
-0.86438203 0.17916656 3.0463645
-0.86387873 0.17868114 3.0418632
-0.86490417 0.17966318 3.0386159
-0.86465573 0.17942238 3.0343652
-0.86491156 0.17942071 3.0303657
-0.86517763 0.17991877 3.0266163
-0.86543369 0.1799171 3.0226169
-0.86468029 0.17943692 3.0183651
-0.86544585 0.17992449 3.0146167
-0.86452579 0.18369555 3.0133686
-0.86578941 0.18466544 3.0178716
-0.86501813 0.18392801 3.0216196
-0.86552215 0.18441343 3.025871
-0.86551595 0.18440962 3.029871
