ply
format ascii 1.0
comment PCL generated
obj_info is_cyberware_data 0
obj_info is_mesh 0
obj_info is_warped 0
obj_info is_interlaced 0
obj_info num_cols 99327
obj_info num_rows 1
obj_info echo_rgb_offset_x 0
obj_info echo_rgb_offset_y 0
obj_info echo_rgb_offset_z 0
obj_info echo_rgb_frontfocus 0.0
obj_info echo_rgb_backfocus 0.0
obj_info echo_rgb_pixelsize 0.0
obj_info echo_rgb_centerpixel 0
obj_info echo_frames 1
obj_info echo_lgincr 0.0
element vertex 1772
property float x
property float y
property float z
end_header
-1.46434 0.223043 1.33051
-1.46434 0.271082 1.3302
-0.864345 0.308594 1.33094
-0.864345 0.357074 1.33047
-1.3624 0.374229 1.33014
-1.35399 0.374229 1.33028
-1.20763 0.374229 1.3301
-1.07088 0.374229 1.33069
-1.0586 0.374229 1.33015
-1.01719 0.374229 1.33098
-0.945515 0.374229 1.33074
-1.37931 -0.225771 1.33147
-1.26691 -0.225771 1.33131
-1.20532 -0.225771 1.33135
-1.13603 -0.225771 1.3313
-1.00208 -0.225771 1.33117
-0.993996 -0.225771 1.33102
-0.962099 -0.225771 1.33144
-0.864345 -0.132216 1.33112
-0.864345 -0.107125 1.3311
-1.46434 0.0133829 1.3317
-0.864345 0.0229791 1.33133
-0.864345 0.0602049 1.33157
-0.864345 0.0945777 1.33163
-0.864345 0.0970715 1.3313
-1.46434 0.113984 1.33145
-0.864345 0.121452 1.33155
-0.864345 0.187541 1.33108
-0.864345 0.25728 1.33116
-0.864345 0.284822 1.33196
-1.46434 0.304777 1.33127
-1.46434 0.342152 1.33131
-1.41256 0.374229 1.33186
-1.33666 0.374229 1.33161
-1.11513 0.374229 1.33142
-0.988203 0.374229 1.33195
-0.902462 0.374229 1.3315
-1.34676 -0.225771 1.33229
-1.27315 -0.225771 1.33239
-1.26805 -0.225771 1.3323
-1.20696 -0.225771 1.33216
-1.02895 -0.225771 1.3324
-1.00658 -0.225771 1.33272
-0.941549 -0.225771 1.33226
-1.46434 -0.218772 1.33221
-0.864345 -0.0869481 1.33293
-1.46434 -0.0200925 1.3328
-0.864345 -0.0130646 1.33295
-0.864345 -0.00975993 1.3327
-1.46434 0.0385078 1.33236
-1.46434 0.0638436 1.33227
-0.864345 0.0686846 1.33241
-1.46434 0.0996799 1.33261
-0.864345 0.135562 1.33278
-0.864345 0.189318 1.33249
-1.46434 0.256711 1.33285
-1.46434 0.25862 1.33269
-1.46434 0.275101 1.33297
-1.46434 0.34443 1.33279
-1.46307 0.374229 1.33253
-1.43346 0.374229 1.33276
-1.28982 0.374229 1.33293
-1.23425 0.374229 1.33294
-1.20754 0.374229 1.33224
-1.06663 0.374229 1.33227
-1.03262 0.374229 1.33294
-0.953316 0.374229 1.33261
-0.91163 0.374229 1.33214
-1.36853 -0.225771 1.33394
-1.31575 -0.225771 1.33322
-1.28023 -0.225771 1.33358
-1.21814 -0.225771 1.3337
-1.21112 -0.225771 1.33325
-1.02115 -0.225771 1.33309
-0.864345 -0.207786 1.33378
-0.864345 -0.197723 1.33352
-0.864345 -0.192047 1.3333
-0.864345 -0.160711 1.33354
-0.864345 -0.138704 1.33345
-1.46434 -0.131717 1.33303
-0.864345 0.0319613 1.333
-1.46434 0.039491 1.33306
-0.864345 0.0498963 1.33358
-0.864345 0.0678439 1.33371
-1.46434 0.139779 1.33334
-0.864345 0.182876 1.33302
-0.864345 0.264224 1.33377
-0.864345 0.290216 1.33398
-1.46222 0.374229 1.33376
-1.43965 0.374229 1.33371
-1.43418 0.374229 1.33399
-1.38239 0.374229 1.33385
-1.30143 0.374229 1.33342
-1.28935 0.374229 1.33318
-1.27269 0.374229 1.33387
-1.2651 0.374229 1.33335
-1.2546 0.374229 1.33366
-1.24031 0.374229 1.33306
-1.10728 0.374229 1.33382
-1.05919 0.374229 1.33352
-1.37 -0.225771 1.33487
-1.36705 -0.225771 1.33467
-1.26302 -0.225771 1.33456
-1.19298 -0.225771 1.33416
-0.898459 -0.225771 1.33442
-0.864345 -0.196916 1.33457
-1.46434 -0.156236 1.3349
-0.864345 -0.102815 1.33418
-0.864345 -0.0441156 1.33437
-1.46434 -0.00132722 1.33453
-0.864345 0.277617 1.33436
-0.864345 0.334145 1.33452
-1.23628 0.374229 1.33445
-1.21029 0.374229 1.33444
-1.1657 0.374229 1.33442
-0.966828 0.374229 1.33476
-0.928313 0.374229 1.33429
-1.30719 -0.225771 1.33572
-1.14162 -0.225771 1.33571
-1.0916 -0.225771 1.33569
-0.949 -0.225771 1.33569
-1.46434 -0.204597 1.33596
-0.864345 -0.0584707 1.33578
-0.864345 0.0101397 1.336
-1.46434 0.0324592 1.33582
-0.864345 0.0559084 1.33503
-0.864345 0.0989716 1.33592
-0.864345 0.109852 1.33597
-1.46434 0.154061 1.3351
-0.864345 0.173328 1.3353
-0.864345 0.176631 1.33524
-0.864345 0.300243 1.33558
-1.3307 0.374229 1.33506
-1.26087 0.374229 1.33598
-1.23555 0.374229 1.33563
-1.21472 0.374229 1.33594
-1.12476 0.374229 1.33588
-1.11023 0.374229 1.33508
-0.968401 0.374229 1.33565
-0.870024 0.374229 1.33582
-1.41648 -0.225771 1.33605
-1.12359 -0.225771 1.33629
-0.993771 -0.225771 1.33619
-0.906265 -0.225771 1.33614
-0.864345 -0.0381245 1.33633
-1.46434 -0.0256947 1.33605
-0.864345 0.0656468 1.33618
-1.46434 0.0685156 1.33684
-1.46434 0.159959 1.33674
-1.46434 0.176385 1.33617
-1.46434 0.183145 1.33635
-0.864345 0.202642 1.33618
-1.46434 0.222259 1.33602
-1.46434 0.297059 1.33608
-1.46434 0.324427 1.33646
-0.864345 0.366118 1.33648
-1.41359 0.374229 1.33634
-1.38752 0.374229 1.33618
-1.22202 0.374229 1.33627
-0.979968 0.374229 1.33674
-1.28489 -0.225771 1.33724
-1.25015 -0.225771 1.3375
-1.23758 -0.225771 1.3376
-1.16645 -0.225771 1.33781
-0.864345 -0.149797 1.33747
-0.864345 -0.147064 1.33707
-1.46434 -0.10741 1.33793
-1.46434 -0.0934299 1.33791
-0.864345 -0.0503586 1.33718
-0.864345 0.0161181 1.33748
-0.864345 0.0827149 1.33795
-1.46434 0.103184 1.33769
-0.864345 0.147732 1.33772
-1.46434 0.174729 1.3371
-1.46434 0.231146 1.33794
-0.864345 0.308542 1.3379
-1.46434 0.312333 1.33797
-0.864345 0.324317 1.33736
-0.864345 0.33277 1.33729
-1.43452 0.374229 1.33702
-1.43053 0.374229 1.33704
-1.2843 0.374229 1.33784
-1.25458 0.374229 1.33777
-1.25274 0.374229 1.33715
-1.21862 0.374229 1.33725
-1.17901 0.374229 1.33705
-1.10982 0.374229 1.33741
-1.085 0.374229 1.33781
-0.99276 0.374229 1.33718
-0.968114 0.374229 1.33783
-0.937544 0.374229 1.3373
-0.910573 0.374229 1.33795
-1.24714 -0.225771 1.33898
-1.21117 -0.225771 1.33821
-1.15938 -0.225771 1.33804
-1.09815 -0.225771 1.33865
-1.09561 -0.225771 1.33813
-1.02471 -0.225771 1.33826
-0.950797 -0.225771 1.3385
-0.907588 -0.225771 1.33843
-1.46434 -0.168368 1.33861
-1.46434 -0.0998462 1.33898
-1.46434 -0.0827001 1.33894
-1.46434 -0.0499833 1.33848
-0.864345 0.127491 1.33891
-0.864345 0.138876 1.33877
-1.46434 0.19281 1.33822
-0.864345 0.201139 1.338
-0.864345 0.214505 1.33898
-1.46434 0.261323 1.33862
-1.46434 0.274574 1.33839
-0.864345 0.312272 1.33862
-1.38328 0.374229 1.33822
-1.34858 0.374229 1.33853
-1.27232 0.374229 1.33833
-1.10076 0.374229 1.33804
-1.01902 0.374229 1.33832
-0.999685 0.374229 1.33858
-0.950242 0.374229 1.33853
-0.945614 0.374229 1.33876
-0.94308 0.374229 1.33809
-0.924606 0.374229 1.33848
-1.45388 -0.225771 1.33978
-1.29318 -0.225771 1.3397
-1.17825 -0.225771 1.3392
-1.0051 -0.225771 1.33996
-0.945331 -0.225771 1.33944
-0.907003 -0.225771 1.33902
-0.864345 -0.197435 1.33995
-0.864345 -0.13176 1.33949
-1.46434 -0.0542736 1.33907
-1.46434 -0.00326757 1.33998
-0.864345 0.193767 1.33909
-0.864345 0.351553 1.33918
-1.44251 0.374229 1.3397
-1.22403 0.374229 1.33997
-1.12176 0.374229 1.33982
-1.08982 0.374229 1.33983
-1.06699 0.374229 1.33913
-0.949535 0.374229 1.33904
-1.46416 -0.225771 1.34058
-1.26507 -0.225771 1.34036
-1.23689 -0.225771 1.34006
-1.22281 -0.225771 1.34099
-1.06655 -0.225771 1.34018
-0.963953 -0.225771 1.34077
-0.877409 -0.225771 1.34055
-0.864345 -0.204169 1.34051
-1.46434 -0.134078 1.3405
-1.46434 -0.00672951 1.3403
-0.864345 0.0636987 1.34041
-1.46434 0.138092 1.34086
-0.864345 0.333448 1.34019
-1.35955 0.374229 1.34013
-1.21807 0.374229 1.34097
-0.986806 0.374229 1.34097
-0.97431 0.374229 1.34049
-0.901162 0.374229 1.34034
-1.44823 -0.225771 1.34121
-1.11304 -0.225771 1.34195
-1.11071 -0.225771 1.34144
-1.46434 -0.0340143 1.34192
-1.46434 0.0059842 1.34102
-1.46434 0.0160721 1.34139
-0.864345 0.0758542 1.34166
-0.864345 0.102689 1.34153
-0.864345 0.117298 1.34179
-0.864345 0.151187 1.341
-0.864345 0.179935 1.34168
-0.864345 0.245865 1.34195
-0.864345 0.269909 1.34161
-0.864345 0.304424 1.34191
-0.864345 0.350849 1.34142
-1.08642 0.374229 1.34141
-1.04611 0.374229 1.34116
-0.956912 0.374229 1.34117
-0.907641 0.374229 1.34119
-1.46434 -0.225588 1.34203
-1.33715 -0.225771 1.34252
-1.1212 -0.225771 1.34287
-1.10918 -0.225771 1.34265
-1.09474 -0.225771 1.34208
-0.986489 -0.225771 1.34255
-1.46434 -0.145714 1.3423
-0.864345 -0.0565239 1.34235
-1.46434 0.0620788 1.34265
-1.46434 0.0844937 1.34209
-0.864345 0.116176 1.3422
-0.864345 0.141338 1.34288
-1.46434 0.144334 1.34284
-1.46434 0.274541 1.34255
-1.46434 0.299553 1.34249
-0.864345 0.313363 1.34232
-0.864345 0.332573 1.34202
-1.44082 0.374229 1.34217
-1.38947 0.374229 1.34295
-1.35791 0.374229 1.3425
-1.06126 0.374229 1.34249
-0.981432 0.374229 1.34236
-1.40292 -0.225771 1.34358
-1.36849 -0.225771 1.34322
-1.24901 -0.225771 1.34326
-1.15997 -0.225771 1.34349
-1.15312 -0.225771 1.34305
-0.962021 -0.225771 1.34318
-0.926078 -0.225771 1.3432
-0.864345 -0.205516 1.3439
-1.46434 -0.187254 1.34356
-0.864345 -0.176487 1.3433
-1.46434 -0.0894308 1.34317
-0.864345 -0.061595 1.34351
-1.46434 0.00221452 1.34374
-1.46434 0.0555307 1.34354
-1.46434 0.0626248 1.34358
-1.46434 0.0930376 1.34379
-0.864345 0.0932546 1.34336
-1.46434 0.248941 1.34348
-1.46434 0.291046 1.34355
-0.864345 0.292701 1.34333
-1.46434 0.305997 1.34342
-0.864345 0.331411 1.3433
-0.864345 0.338104 1.34387
-1.42189 0.374229 1.34312
-1.35283 0.374229 1.34325
-1.32454 0.374229 1.34319
-1.20293 0.374229 1.34324
-1.1753 0.374229 1.34372
-1.14066 0.374229 1.34314
-1.1224 0.374229 1.34333
-1.01248 0.374229 1.34369
-0.914017 0.374229 1.34332
-1.36718 -0.225771 1.34463
-1.27939 -0.225771 1.34429
-1.23197 -0.225771 1.34403
-1.2259 -0.225771 1.34489
-1.16783 -0.225771 1.34438
-1.05086 -0.225771 1.34458
-0.875792 -0.225771 1.34453
-1.46434 -0.222604 1.34455
-1.46434 -0.221591 1.34499
-1.46434 -0.208163 1.34454
-1.46434 -0.206018 1.34481
-0.864345 -0.128296 1.34488
-1.46434 -0.0667823 1.34445
-1.46434 -0.0139571 1.34476
-0.864345 0.0108495 1.34484
-0.864345 0.0367778 1.34415
-0.864345 0.121262 1.344
-1.46434 0.138273 1.34481
-0.864345 0.143814 1.34444
-1.46434 0.150516 1.34421
-0.864345 0.201782 1.34426
-0.864345 0.20525 1.34483
-1.46434 0.20893 1.34453
-0.864345 0.273772 1.34475
-0.864345 0.28712 1.34413
-1.33195 0.374229 1.34406
-1.26046 0.374229 1.3449
-1.22358 0.374229 1.34493
-1.19966 0.374229 1.34416
-1.18544 0.374229 1.34442
-1.12158 0.374229 1.34497
-1.07342 0.374229 1.34422
-1.07069 0.374229 1.34473
-1.06828 0.374229 1.34435
-1.06462 0.374229 1.34493
-1.04264 0.374229 1.34479
-1.0058 0.374229 1.34461
-1.33028 -0.225771 1.34542
-1.32623 -0.225771 1.34527
-1.32246 -0.225771 1.34526
-1.3189 -0.225771 1.34511
-1.22607 -0.225771 1.34561
-0.935471 -0.225771 1.34574
-0.898547 -0.225771 1.34514
-1.46434 -0.19351 1.34597
-1.46434 -0.171145 1.34504
-1.46434 -0.145978 1.34592
-0.864345 -0.0375513 1.34536
-0.864345 0.00830363 1.34514
-1.46434 0.0309356 1.34544
-0.864345 0.0766727 1.34539
-0.864345 0.088711 1.34529
-1.46434 0.0890032 1.34566
-0.864345 0.117714 1.34593
-0.864345 0.118178 1.34565
-0.864345 0.250581 1.34541
-0.864345 0.311618 1.34519
-1.23563 0.374229 1.34545
-1.16119 0.374229 1.34537
-1.11704 0.374229 1.34531
-1.10136 0.374229 1.34557
-1.04442 0.374229 1.34561
-0.971972 0.374229 1.346
-1.45951 -0.225771 1.34676
-1.41442 -0.225771 1.34664
-1.3872 -0.225771 1.34684
-1.37359 -0.225771 1.34618
-1.34362 -0.225771 1.34627
-1.30986 -0.225771 1.34684
-1.21218 -0.225771 1.34611
-1.18608 -0.225771 1.34621
-0.993133 -0.225771 1.34665
-0.985642 -0.225771 1.34662
-0.93689 -0.225771 1.34649
-0.891232 -0.225771 1.34664
-0.871281 -0.225771 1.3462
-0.864345 -0.207956 1.34608
-0.864345 -0.118527 1.3469
-0.864345 -0.115374 1.34635
-0.864345 -0.0698235 1.34646
-0.864345 0.0256479 1.34613
-1.46434 0.0626424 1.34698
-0.864345 0.0775613 1.34689
-0.864345 0.154654 1.34678
-0.864345 0.191482 1.346
-0.864345 0.199075 1.34664
-1.46434 0.203014 1.34678
-0.864345 0.249877 1.34698
-1.46434 0.283929 1.34637
-0.864345 0.301286 1.34684
-0.864345 0.367156 1.34697
-1.37548 0.374229 1.34675
-1.24033 0.374229 1.34669
-1.20993 0.374229 1.34696
-1.19684 0.374229 1.3469
-0.973782 0.374229 1.34618
-0.959309 0.374229 1.346
-0.932624 0.374229 1.34643
-0.87474 0.374229 1.34625
-1.40714 -0.225771 1.34706
-1.35407 -0.225771 1.34744
-1.21602 -0.225771 1.34799
-1.15588 -0.225771 1.34741
-1.08463 -0.225771 1.3474
-1.0403 -0.225771 1.34739
-1.00378 -0.225771 1.3473
-0.864345 -0.149451 1.34704
-0.864345 -0.138072 1.34723
-0.864345 -0.108982 1.34759
-1.46434 -0.0506949 1.34727
-0.864345 0.0623483 1.34761
-0.864345 0.0789165 1.34737
-1.46434 0.117426 1.34769
-1.46434 0.238788 1.34701
-1.46434 0.275759 1.3477
-0.864345 0.292139 1.34717
-1.42323 0.374229 1.34734
-1.29151 0.374229 1.34777
-1.226 0.374229 1.34799
-1.16373 0.374229 1.34728
-1.13775 0.374229 1.34748
-1.10639 0.374229 1.34762
-0.880309 0.374229 1.34785
-0.874032 0.374229 1.34743
-1.41442 -0.225771 1.34894
-1.29262 -0.225771 1.34857
-1.27774 -0.225771 1.34891
-1.26459 -0.225771 1.34883
-1.21235 -0.225771 1.34868
-1.10149 -0.225771 1.34826
-1.08404 -0.225771 1.34871
-1.07004 -0.225771 1.34845
-0.936423 -0.225771 1.34824
-1.46434 -0.203599 1.34873
-0.864345 -0.163262 1.34831
-1.46434 -0.0632431 1.34874
-0.864345 -0.0379379 1.34846
-0.864345 -0.0360277 1.34898
-1.46434 -0.0278317 1.34816
-1.46434 0.0494695 1.34872
-0.864345 0.0843488 1.34897
-1.46434 0.12421 1.3482
-0.864345 0.137669 1.34815
-1.46434 0.156526 1.34804
-0.864345 0.231747 1.34813
-0.864345 0.287772 1.34804
-1.46434 0.317615 1.34885
-0.864345 0.33933 1.34808
-0.864345 0.340137 1.34845
-1.43426 0.374229 1.349
-1.39984 0.374229 1.34867
-1.35524 0.374229 1.34809
-1.26924 0.374229 1.34848
-1.11773 0.374229 1.34884
-1.0997 0.374229 1.34849
-0.987412 0.374229 1.34818
-0.914508 0.374229 1.34814
-1.39885 -0.225771 1.34992
-1.38569 -0.225771 1.34992
-1.32877 -0.225771 1.34976
-1.31835 -0.225771 1.34945
-1.2566 -0.225771 1.34949
-1.23253 -0.225771 1.3492
-1.14697 -0.225771 1.34926
-0.935617 -0.225771 1.34927
-0.864345 -0.213356 1.34912
-0.864345 -0.145703 1.34919
-0.864345 -0.136418 1.35
-1.46434 0.0449342 1.34922
-0.864345 0.0703032 1.34922
-0.864345 0.104673 1.34974
-1.46434 0.122905 1.34983
-1.46434 0.174523 1.34992
-0.864345 0.221646 1.34971
-0.864345 0.24326 1.34942
-0.864345 0.289236 1.34905
-1.46434 0.29452 1.34956
-1.46434 0.358956 1.34975
-1.42248 0.374229 1.34999
-1.37615 0.374229 1.34957
-1.23177 0.374229 1.34988
-1.20475 0.374229 1.34905
-1.11609 0.374229 1.34996
-1.03617 0.374229 1.34987
-0.963787 0.374229 1.3496
-1.44017 -0.225771 1.35064
-1.41919 -0.225771 1.3503
-1.38232 -0.225771 1.35044
-1.37885 -0.225771 1.35077
-1.34401 -0.225771 1.35014
-1.28297 -0.225771 1.35069
-1.23743 -0.225771 1.35041
-1.22911 -0.225771 1.35091
-1.1562 -0.225771 1.35081
-1.12102 -0.225771 1.35033
-1.05616 -0.225771 1.35014
-1.0042 -0.225771 1.35084
-0.900781 -0.225771 1.35045
-0.864345 -0.21199 1.35054
-1.46434 -0.193578 1.35081
-0.864345 -0.184174 1.35068
-0.864345 -0.124335 1.35039
-1.46434 -0.0912282 1.35022
-1.46434 -0.062489 1.35008
-0.864345 -0.0338663 1.35002
-0.864345 -0.00948803 1.35028
-0.864345 0.068666 1.35061
-1.46434 0.0786004 1.35017
-0.864345 0.1218 1.35059
-1.46434 0.125072 1.3505
-0.864345 0.139268 1.35035
-1.46434 0.187992 1.35091
-0.864345 0.191351 1.35086
-0.864345 0.208563 1.351
-1.46434 0.227961 1.35001
-1.46434 0.254749 1.35063
-0.864345 0.266818 1.35001
-0.864345 0.328227 1.35017
-1.46434 0.331016 1.35018
-1.40602 0.374229 1.35091
-1.34515 0.374229 1.35
-1.30902 0.374229 1.35023
-1.30443 0.374229 1.35098
-1.29387 0.374229 1.35076
-1.22656 0.374229 1.35019
-1.15297 0.374229 1.35006
-1.08763 0.374229 1.35091
-1.04101 0.374229 1.35025
-1.33755 -0.225771 1.35146
-1.28369 -0.225771 1.35135
-1.08069 -0.225771 1.3511
-1.0797 -0.225771 1.35111
-0.920036 -0.225771 1.35144
-0.864345 -0.153994 1.35132
-1.46434 -0.121273 1.35186
-1.46434 -0.118349 1.35125
-1.46434 -0.0951885 1.35111
-0.864345 -0.0183334 1.3519
-0.864345 -0.00878593 1.35137
-1.46434 0.0131241 1.35194
-1.46434 0.0226978 1.3515
-1.46434 0.024311 1.3517
-1.46434 0.0397701 1.3519
-0.864345 0.121515 1.35145
-0.864345 0.137412 1.35174
-1.46434 0.245165 1.35141
-1.46434 0.340728 1.35166
-1.2337 0.374229 1.35198
-0.962256 0.374229 1.35115
-1.299 -0.225771 1.35215
-1.2973 -0.225771 1.35233
-1.18986 -0.225771 1.35229
-1.08979 -0.225771 1.35273
-0.924561 -0.225771 1.3521
-0.89515 -0.225771 1.35215
-0.879129 -0.225771 1.35234
-0.864345 -0.223257 1.3523
-0.864345 -0.222549 1.35225
-0.864345 -0.218253 1.35218
-1.46434 -0.186765 1.35207
-1.46434 -0.17047 1.35269
-0.864345 -0.140746 1.35228
-1.46434 -0.1345 1.35232
-0.864345 -0.121118 1.35235
-1.46434 -0.0755023 1.35223
-1.46434 -0.0508887 1.35256
-1.46434 -0.0229519 1.35234
-0.864345 0.0195863 1.35287
-0.864345 0.0446008 1.35256
-0.864345 0.0511686 1.35241
-0.864345 0.0753621 1.35201
-1.46434 0.225472 1.35294
-0.864345 0.251376 1.35246
-0.864345 0.324417 1.35255
-1.45976 0.374229 1.35205
-1.22566 0.374229 1.35242
-0.965478 0.374229 1.35212
-0.963551 0.374229 1.35227
-0.921128 0.374229 1.35227
-0.911611 0.374229 1.35285
-1.42416 -0.225771 1.35346
-1.16792 -0.225771 1.35337
-1.09538 -0.225771 1.35377
-1.08034 -0.225771 1.3536
-1.06642 -0.225771 1.35362
-0.950907 -0.225771 1.3536
-0.933976 -0.225771 1.35369
-0.894564 -0.225771 1.35396
-1.46434 -0.212346 1.35312
-0.864345 -0.0588894 1.35307
-0.864345 -0.0116152 1.35362
-1.46434 0.0316725 1.35395
-1.46434 0.0650849 1.35335
-1.46434 0.115532 1.35306
-1.46434 0.14426 1.35328
-1.46434 0.165193 1.35325
-0.864345 0.169372 1.35372
-1.46434 0.20922 1.35345
-0.864345 0.248443 1.35348
-1.29419 0.374229 1.35343
-1.15988 0.374229 1.35311
-1.12076 0.374229 1.35381
-1.06174 0.374229 1.35386
-1.01024 0.374229 1.35397
-1.42345 -0.225771 1.35458
-1.32054 -0.225771 1.35463
-1.30117 -0.225771 1.35485
-1.12968 -0.225771 1.35482
-1.04958 -0.225771 1.3542
-1.01824 -0.225771 1.3541
-1.46434 -0.18701 1.3542
-1.46434 -0.0202457 1.35414
-1.46434 -0.0167068 1.35494
-0.864345 0.157645 1.35491
-1.46434 0.19298 1.35473
-0.864345 0.227949 1.35474
-0.864345 0.316178 1.35487
-1.45484 0.374229 1.35498
-1.36065 0.374229 1.35473
-1.31175 0.374229 1.35415
-1.13983 0.374229 1.35474
-1.08755 0.374229 1.3544
-1.05119 0.374229 1.35404
-0.982534 0.374229 1.35402
-0.971715 0.374229 1.35492
-0.914248 0.374229 1.35428
-0.902269 0.374229 1.3545
-0.895274 0.374229 1.35485
-1.41087 -0.225771 1.35593
-1.39708 -0.225771 1.3558
-1.31358 -0.225771 1.35538
-1.28762 -0.225771 1.35587
-1.06472 -0.225771 1.35502
-1.04168 -0.225771 1.35555
-1.02882 -0.225771 1.3558
-1.00118 -0.225771 1.35589
-0.864345 -0.0891701 1.35545
-1.46434 -0.079382 1.35566
-1.46434 -0.0386836 1.35525
-1.46434 -0.0378446 1.35545
-1.46434 -0.0254749 1.35575
-1.46434 0.0274807 1.35591
-0.864345 0.0277977 1.35533
-1.46434 0.040296 1.35548
-1.46434 0.0427064 1.35521
-1.46434 0.0468414 1.35529
-0.864345 0.0926514 1.35588
-0.864345 0.145105 1.35564
-1.46434 0.224668 1.35553
-0.864345 0.267843 1.35553
-0.864345 0.308007 1.35546
-1.46434 0.311137 1.35575
-0.864345 0.335722 1.35593
-1.3105 0.374229 1.35598
-1.20231 0.374229 1.35566
-1.14585 0.374229 1.35557
-1.14046 0.374229 1.35569
-1.13373 0.374229 1.35535
-1.09018 0.374229 1.35596
-0.999281 0.374229 1.35581
-0.900015 0.374229 1.35515
-1.42411 -0.225771 1.35614
-1.36259 -0.225771 1.35651
-1.35281 -0.225771 1.35645
-1.25842 -0.225771 1.3561
-1.22499 -0.225771 1.35668
-1.21577 -0.225771 1.35628
-0.912965 -0.225771 1.35678
-0.911827 -0.225771 1.35649
-0.864345 -0.208418 1.35668
-1.46434 -0.151889 1.35608
-1.46434 -0.10905 1.3562
-0.864345 -0.102193 1.35634
-0.864345 -0.0557326 1.35609
-0.864345 0.0618139 1.35666
-0.864345 0.0964584 1.35631
-0.864345 0.0973777 1.35677
-1.46434 0.102939 1.35695
-0.864345 0.114032 1.35629
-0.864345 0.155692 1.35651
-0.864345 0.22529 1.3565
-0.864345 0.251722 1.35686
-1.46434 0.295417 1.35657
-1.46434 0.305646 1.35676
-0.864345 0.316917 1.35664
-1.46434 0.328019 1.35644
-1.46434 0.347064 1.35656
-1.46434 0.369597 1.35632
-1.45065 0.374229 1.35667
-1.19432 0.374229 1.35685
-1.1761 0.374229 1.35632
-1.14536 0.374229 1.35637
-1.11345 0.374229 1.35607
-0.958979 0.374229 1.35653
-1.42671 -0.225771 1.35791
-1.38751 -0.225771 1.35723
-1.34594 -0.225771 1.35746
-1.32902 -0.225771 1.3575
-1.21211 -0.225771 1.35787
-1.21043 -0.225771 1.35775
-1.15592 -0.225771 1.35705
-1.09948 -0.225771 1.35771
-0.900712 -0.225771 1.35747
-0.864345 -0.200167 1.35752
-0.864345 -0.1985 1.35791
-1.46434 -0.185559 1.35745
-0.864345 -0.16854 1.3576
-0.864345 -0.121417 1.3574
-0.864345 -0.0836848 1.35703
-1.46434 -0.0566005 1.35765
-1.46434 0.00661124 1.35703
-1.46434 0.0388516 1.35761
-1.46434 0.0761578 1.35732
-0.864345 0.0781222 1.35787
-1.46434 0.0796428 1.357
-1.46434 0.125948 1.35701
-1.46434 0.127319 1.35712
-1.46434 0.177313 1.35724
-1.46434 0.322506 1.35724
-1.42834 0.374229 1.35723
-1.37937 0.374229 1.35744
-1.32826 0.374229 1.35716
-1.31258 0.374229 1.35712
-1.2674 0.374229 1.35798
-1.26565 0.374229 1.35793
-0.888498 0.374229 1.35747
-1.26158 -0.225771 1.35896
-1.2267 -0.225771 1.35808
-1.05366 -0.225771 1.35813
-1.03528 -0.225771 1.35842
-0.973092 -0.225771 1.35839
-0.939861 -0.225771 1.35889
-0.864345 -0.203419 1.358
-1.46434 -0.179581 1.35824
-0.864345 -0.110706 1.35871
-1.46434 -0.0746465 1.35897
-1.46434 -0.0707009 1.35816
-1.46434 -0.0533111 1.35818
-1.46434 -0.0170439 1.35843
-1.46434 0.0267528 1.35839
-1.46434 0.137941 1.35892
-1.46434 0.206204 1.35841
-0.864345 0.248571 1.35848
-0.864345 0.270518 1.35818
-1.46434 0.332357 1.35813
-1.46434 0.344623 1.35852
-1.46299 0.374229 1.35823
-1.45179 0.374229 1.35867
-1.31226 0.374229 1.3587
-1.23341 0.374229 1.35802
-0.956096 0.374229 1.35874
-0.866132 0.374229 1.3589
-1.23082 -0.225771 1.35967
-1.16753 -0.225771 1.35912
-1.12986 -0.225771 1.3594
-0.867397 -0.225771 1.35964
-1.46434 -0.221203 1.35966
-1.46434 -0.170218 1.35929
-0.864345 -0.152463 1.35915
-1.46434 -0.146052 1.35977
-1.46434 -0.128668 1.35915
-0.864345 -0.07293 1.35986
-1.46434 -0.0456491 1.35953
-1.46434 0.000593781 1.35906
-0.864345 0.00379786 1.35964
-0.864345 0.011591 1.35929
-0.864345 0.0669633 1.35969
-0.864345 0.0898617 1.35965
-0.864345 0.190744 1.35926
-0.864345 0.192587 1.35991
-0.864345 0.263046 1.35951
-0.864345 0.302182 1.35903
-1.46434 0.352057 1.35908
-1.44392 0.374229 1.35907
-1.40053 0.374229 1.35969
-1.30422 0.374229 1.35929
-1.29381 0.374229 1.35953
-1.16636 0.374229 1.35912
-1.05296 0.374229 1.3593
-0.976727 0.374229 1.35968
-0.89614 0.374229 1.35932
-1.31479 -0.225771 1.3606
-1.264 -0.225771 1.36011
-1.1799 -0.225771 1.36005
-1.11051 -0.225771 1.36043
-1.00015 -0.225771 1.36055
-0.959693 -0.225771 1.36054
-0.895678 -0.225771 1.36044
-0.884224 -0.225771 1.36051
-0.869209 -0.225771 1.36051
-1.46434 -0.197704 1.36089
-1.46434 -0.169258 1.36046
-0.864345 -0.0865549 1.36044
-0.864345 -0.0768196 1.36094
-0.864345 -0.0513149 1.36032
-0.864345 -0.015722 1.36025
-0.864345 0.00357547 1.36035
-1.46434 0.0176555 1.36076
-1.46434 0.149624 1.36091
-0.864345 0.172653 1.36028
-1.46434 0.217526 1.36097
-0.864345 0.299323 1.36057
-1.46297 0.374229 1.36091
-1.39725 0.374229 1.36046
-1.18177 0.374229 1.36028
-1.17768 0.374229 1.36051
-1.05066 0.374229 1.36082
-1.01284 0.374229 1.36017
-0.912443 0.374229 1.36023
-1.43675 -0.225771 1.36195
-1.41925 -0.225771 1.36198
-1.40288 -0.225771 1.36128
-1.39754 -0.225771 1.36104
-1.31955 -0.225771 1.36157
-1.26772 -0.225771 1.36185
-1.17254 -0.225771 1.36142
-1.10465 -0.225771 1.36167
-0.99281 -0.225771 1.36147
-0.981808 -0.225771 1.36168
-1.46434 -0.224882 1.36102
-1.46434 -0.156619 1.36114
-1.46434 -0.0958317 1.36178
-0.864345 0.0287981 1.36187
-1.46434 0.110359 1.36156
-0.864345 0.118369 1.36136
-1.46434 0.158661 1.3614
-1.46434 0.162868 1.36156
-0.864345 0.373102 1.36157
-1.22127 0.374229 1.3615
-1.15549 0.374229 1.36182
-1.13598 0.374229 1.36115
-1.07051 0.374229 1.36171
-0.983283 0.374229 1.36182
-0.971852 0.374229 1.36134
-0.965555 0.374229 1.36154
-1.28744 -0.225771 1.36284
-1.0959 -0.225771 1.36264
-1.0168 -0.225771 1.36217
-1.01404 -0.225771 1.36226
-0.971151 -0.225771 1.36293
-0.957989 -0.225771 1.36217
-0.949495 -0.225771 1.36292
-0.864725 -0.225771 1.36203
-0.864345 -0.218633 1.36225
-0.864345 -0.126171 1.36241
-0.864345 -0.125633 1.36212
-1.46434 -0.0928775 1.36213
-1.46434 0.0411031 1.36293
-1.46434 0.0695235 1.3627
-1.46434 0.151886 1.3625
-1.46434 0.20539 1.36242
-1.46434 0.224583 1.36292
-1.46434 0.252974 1.36235
-0.864345 0.290823 1.36235
-0.864345 0.368655 1.36244
-0.864345 0.369698 1.36265
-1.35302 0.374229 1.36285
-1.31598 0.374229 1.36223
-1.25074 0.374229 1.36223
-1.10132 0.374229 1.36295
-1.01629 0.374229 1.36272
-0.9319 0.374229 1.36294
-1.31032 -0.225771 1.36374
-1.27672 -0.225771 1.3633
-1.24382 -0.225771 1.36382
-1.13545 -0.225771 1.3638
-1.05971 -0.225771 1.3637
-1.03579 -0.225771 1.36325
-1.02149 -0.225771 1.36343
-1.01377 -0.225771 1.36306
-0.991392 -0.225771 1.36355
-0.972332 -0.225771 1.36372
-0.904293 -0.225771 1.36382
-0.864345 -0.15415 1.36333
-0.864345 -0.141439 1.36328
-0.864345 -0.139357 1.3637
-1.46434 -0.128733 1.36378
-1.46434 -0.113665 1.36327
-0.864345 -0.105731 1.36339
-0.864345 -0.10339 1.36372
-1.46434 -0.0157079 1.36367
-0.864345 -0.00644101 1.36384
-0.864345 0.0207499 1.36313
-0.864345 0.0597243 1.36305
-0.864345 0.0736792 1.36397
-0.864345 0.0742839 1.36347
-1.46434 0.0873326 1.36374
-0.864345 0.122637 1.3632
-1.46434 0.176658 1.36396
-0.864345 0.184446 1.36399
-0.864345 0.194055 1.36397
-0.864345 0.265187 1.36337
-1.46434 0.282136 1.36303
-0.864345 0.362431 1.36379
-1.3854 0.374229 1.3639
-1.36769 0.374229 1.36342
-1.28664 0.374229 1.36383
-1.28309 0.374229 1.36329
-1.23554 0.374229 1.36305
-1.09629 0.374229 1.36348
-1.07671 0.374229 1.364
-1.31837 -0.225771 1.36436
-1.28211 -0.225771 1.36437
-1.23829 -0.225771 1.3641
-1.22208 -0.225771 1.36497
-1.04601 -0.225771 1.36459
-1.0341 -0.225771 1.36462
-0.934031 -0.225771 1.36419
-0.92339 -0.225771 1.3643
-0.884846 -0.225771 1.36481
-1.46434 -0.16412 1.36403
-0.864345 -0.134737 1.36436
-0.864345 -0.112086 1.36458
-0.864345 -0.0793215 1.36445
-1.46434 -0.0465639 1.3641
-1.46434 0.0380336 1.36461
-0.864345 0.0423586 1.36445
-0.864345 0.122905 1.36462
-0.864345 0.126852 1.36479
-1.46434 0.151085 1.36488
-0.864345 0.181408 1.36439
-0.864345 0.230207 1.3644
-0.864345 0.240641 1.36402
-1.46434 0.295765 1.36407
-0.864345 0.312965 1.36476
-1.46434 0.314411 1.3646
-1.4006 0.374229 1.36487
-1.36332 0.374229 1.3641
-1.13142 0.374229 1.36437
-1.02321 0.374229 1.36424
-1.43697 -0.225771 1.36577
-1.21214 -0.225771 1.36538
-1.16742 -0.225771 1.36564
-0.948023 -0.225771 1.3651
-0.925175 -0.225771 1.36591
-1.46434 -0.211146 1.36536
-0.864345 -0.199573 1.36525
-0.864345 -0.186951 1.36534
-1.46434 -0.182519 1.36596
-0.864345 -0.172111 1.36546
-1.46434 -0.121029 1.36586
-0.864345 -0.0890753 1.36575
-1.46434 -0.0736174 1.36501
-1.46434 -0.0542608 1.36518
-0.864345 -0.054453 1.36556
-1.46434 -0.0224122 1.36545
-1.46434 0.149009 1.36577
-0.864345 0.151784 1.36548
-0.864345 0.16539 1.36539
-0.864345 0.23117 1.36568
-1.46434 0.244699 1.36589
-1.46434 0.246458 1.36554
-1.46434 0.312833 1.36568
-1.46434 0.330404 1.36566
-1.46434 0.347754 1.36543
-1.44553 0.374229 1.3654
-1.40445 0.374229 1.36513
-1.337 0.374229 1.36516
-1.14494 0.374229 1.36563
-1.073 0.374229 1.36558
-1.07089 0.374229 1.36511
-1.06012 0.374229 1.3653
-0.986412 0.374229 1.36531
-0.983652 0.374229 1.36565
-0.935378 0.374229 1.36593
-0.89174 0.374229 1.36568
-1.4475 -0.225771 1.36624
-1.36358 -0.225771 1.36665
-1.3533 -0.225771 1.3661
-1.07046 -0.225771 1.3663
-1.06345 -0.225771 1.36628
-1.01667 -0.225771 1.36679
-0.893334 -0.225771 1.36609
-0.86618 -0.225771 1.36613
-1.46434 -0.195442 1.36646
-0.864345 -0.0638328 1.36656
-1.46434 -0.0549269 1.36698
-1.46434 -0.0488033 1.36606
-1.46434 -0.0309348 1.36641
-1.46434 0.0232451 1.36685
-1.46434 0.0391793 1.36661
-0.864345 0.106876 1.36686
-0.864345 0.116384 1.36656
-1.46434 0.132907 1.36626
-0.864345 0.191574 1.3661
-0.864345 0.242381 1.3669
-0.864345 0.331923 1.36683
-1.39317 0.374229 1.36698
-1.26434 0.374229 1.36651
-1.24835 0.374229 1.36651
-1.1727 0.374229 1.3669
-1.14621 0.374229 1.36615
-1.12243 0.374229 1.36614
-1.09421 0.374229 1.36662
-1.40718 -0.225771 1.36799
-1.32136 -0.225771 1.36799
-1.18108 -0.225771 1.36722
-1.15079 -0.225771 1.36713
-1.10989 -0.225771 1.36701
-1.0969 -0.225771 1.3671
-1.01169 -0.225771 1.3674
-1.00654 -0.225771 1.36792
-0.918138 -0.225771 1.36706
-0.905749 -0.225771 1.36714
-0.864345 -0.209812 1.3679
-1.46434 -0.141609 1.36768
-1.46434 -0.121284 1.36702
-0.864345 -0.0918415 1.36766
-0.864345 -0.0546836 1.36756
-0.864345 -0.0352101 1.36702
-0.864345 -0.00290361 1.36714
-1.46434 0.00846884 1.3673
-1.46434 0.0182104 1.36718
-0.864345 0.0343448 1.36769
-1.46434 0.155821 1.36751
-0.864345 0.165432 1.36756
-1.46434 0.172791 1.36783
-0.864345 0.199863 1.36706
-0.864345 0.204459 1.36764
-0.864345 0.233449 1.36709
-0.864345 0.245632 1.36776
-0.864345 0.286401 1.36734
-1.46434 0.314757 1.36793
-0.864345 0.322246 1.36703
-1.46434 0.353548 1.36757
-1.31412 0.374229 1.36799
-1.29594 0.374229 1.36764
-1.25723 0.374229 1.36717
-1.2474 0.374229 1.36725
-1.22199 0.374229 1.36798
-1.21332 0.374229 1.36777
-1.20452 0.374229 1.36774
-1.17744 0.374229 1.36798
-1.04324 0.374229 1.36732
-0.964478 0.374229 1.36788
-0.962466 0.374229 1.36769
-0.892691 0.374229 1.36712
-1.35621 -0.225771 1.36866
-1.31724 -0.225771 1.36836
-1.19683 -0.225771 1.36881
-1.19182 -0.225771 1.36881
-1.14046 -0.225771 1.36817
-0.893626 -0.225771 1.36894
-1.46434 -0.214328 1.36883
-0.864345 -0.045806 1.36866
-1.46434 0.0379519 1.36859
-0.864345 0.044018 1.36849
-0.864345 0.068031 1.36863
-0.864345 0.0920643 1.36885
-1.46434 0.131218 1.36872
-0.864345 0.135136 1.36816
-0.864345 0.13785 1.36868
-1.46434 0.276065 1.36866
-1.46434 0.299511 1.36811
-0.864345 0.306565 1.36869
-0.864345 0.321262 1.36867
-0.864345 0.338932 1.36833
-0.864345 0.373194 1.36882
-1.45999 0.374229 1.36825
-1.37458 0.374229 1.3684
-1.06019 0.374229 1.36808
-0.98758 0.374229 1.36897
-1.38398 -0.225771 1.36955
-1.2862 -0.225771 1.36979
-1.25685 -0.225771 1.36931
-1.23321 -0.225771 1.36908
-1.1989 -0.225771 1.36936
-1.15767 -0.225771 1.36948
-1.11434 -0.225771 1.36981
-1.03945 -0.225771 1.36987
-0.904923 -0.225771 1.36937
-1.46434 -0.215279 1.36916
-1.46434 -0.158076 1.36991
-0.864345 -0.118538 1.36935
-1.46434 -0.0999273 1.36938
-1.46434 -0.0780966 1.36997
-0.864345 -0.0735561 1.36959
-1.46434 -0.0709848 1.36942
-1.46434 -0.0674668 1.36925
-1.46434 0.0067009 1.36948
-1.46434 0.0842474 1.36924
-0.864345 0.230701 1.36908
-0.864345 0.256791 1.36936
-1.46434 0.296764 1.36963
-1.46434 0.352029 1.36912
-1.45831 0.374229 1.36964
-1.34884 0.374229 1.3693
-1.00875 0.374229 1.36989
-0.994083 0.374229 1.36918
-0.985568 0.374229 1.36953
-1.45367 -0.225771 1.37046
-1.31961 -0.225771 1.37094
-1.18229 -0.225771 1.3704
-1.09505 -0.225771 1.3705
-1.46434 -0.0964214 1.37049
-0.864345 -0.0736174 1.3706
-0.864345 -0.0149464 1.37081
-0.864345 0.00454007 1.37093
-1.46434 0.0168244 1.37053
-1.46434 0.0537432 1.37009
-0.864345 0.0615081 1.37016
-1.46434 0.0741375 1.37087
-1.46434 0.097746 1.37014
-1.46434 0.0980441 1.37094
-0.864345 0.103774 1.37015
-0.864345 0.181691 1.37031
-0.864345 0.22065 1.37041
-0.864345 0.22681 1.37095
-0.864345 0.237723 1.37069
-0.864345 0.242674 1.37068
-1.46434 0.271701 1.37033
-1.46434 0.294394 1.37068
-0.864345 0.320378 1.37004
-1.46434 0.327682 1.37011
-1.46434 0.332258 1.3706
-1.44169 0.374229 1.3709
-1.37428 0.374229 1.37084
-1.26741 0.374229 1.371
-1.26394 0.374229 1.37041
-1.10042 0.374229 1.37078
-1.09542 0.374229 1.37008
-0.909749 0.374229 1.37069
-1.39467 -0.225771 1.3713
-1.38647 -0.225771 1.37171
-1.32929 -0.225771 1.37146
-1.29343 -0.225771 1.37156
-1.15957 -0.225771 1.37187
-1.04072 -0.225771 1.37167
-0.984408 -0.225771 1.37129
-0.953658 -0.225771 1.37185
-0.873357 -0.225771 1.37104
-1.46434 -0.209548 1.37117
-0.864345 -0.111623 1.37125
-0.864345 -0.0838047 1.3719
-0.864345 -0.0633059 1.3718
-1.46434 -0.0530283 1.37156
-1.46434 0.0294826 1.37139
-1.46434 0.0640029 1.37196
-0.864345 0.0645704 1.37174
-0.864345 0.0742839 1.37157
-1.46434 0.125729 1.37128
-0.864345 0.174125 1.37123
-0.864345 0.25947 1.37192
-0.864345 0.333968 1.37176
-1.4392 0.374229 1.37183
-1.29534 0.374229 1.37188
-1.29038 0.374229 1.37182
-1.26661 0.374229 1.37198
-1.26028 0.374229 1.37105
-1.22838 0.374229 1.3712
-1.21781 0.374229 1.37162
-1.08368 0.374229 1.37198
-0.996719 0.374229 1.37133
-1.24965 -0.225771 1.37285
-1.23752 -0.225771 1.37212
-1.15034 -0.225771 1.37263
-1.11859 -0.225771 1.37267
-0.864345 -0.195143 1.37223
-1.46434 -0.161337 1.37291
-1.46434 -0.156018 1.37206
-0.864345 -0.156339 1.3725
-0.864345 -0.0998926 1.37216
-1.46434 -0.0948256 1.37232
-0.864345 -0.0870672 1.37262
-0.864345 -0.0754168 1.37215
-0.864345 0.0394089 1.3727
-0.864345 0.122053 1.37249
-1.46434 0.149185 1.37244
-0.864345 0.159118 1.37298
-0.864345 0.230797 1.37258
-1.46434 0.267431 1.37295
-1.46434 0.310021 1.37258
-1.46434 0.316411 1.37236
-1.31001 0.374229 1.37288
-1.2949 0.374229 1.37222
-1.21614 0.374229 1.37278
-1.20605 0.374229 1.37231
-1.15186 0.374229 1.37221
-0.939617 0.374229 1.37244
-0.924683 0.374229 1.37274
-1.41386 -0.225771 1.37357
-1.1047 -0.225771 1.37319
-1.10284 -0.225771 1.37343
-1.04439 -0.225771 1.37312
-1.03006 -0.225771 1.37346
-0.959752 -0.225771 1.3732
-0.890405 -0.225771 1.37327
-0.873587 -0.225771 1.37301
-0.866182 -0.225771 1.37359
-1.46434 -0.137396 1.37313
-1.46434 -0.135546 1.3733
-1.46434 -0.118483 1.37395
-0.864345 -0.105513 1.37395
-0.864345 -0.0887076 1.37327
-1.46434 -0.0399588 1.37315
-1.46434 0.0265315 1.37384
-1.46434 0.0816637 1.37359
-0.864345 0.106083 1.37353
-1.46434 0.219023 1.37369
-0.864345 0.261278 1.37347
-0.864345 0.324866 1.37357
-1.38023 0.374229 1.37382
-1.33084 0.374229 1.37304
-1.18374 0.374229 1.37342
-1.12078 0.374229 1.37393
-1.03372 0.374229 1.373
-0.9439 0.374229 1.37319
-1.42175 -0.225771 1.37456
-1.37417 -0.225771 1.37464
-1.26533 -0.225771 1.37474
-1.25703 -0.225771 1.37429
-1.07761 -0.225771 1.37482
-1.06663 -0.225771 1.37413
-1.06199 -0.225771 1.37406
-1.04628 -0.225771 1.37449
-1.03068 -0.225771 1.37453
-1.46434 -0.214514 1.37484
-0.864345 -0.176806 1.37488
-0.864345 -0.0993825 1.37485
-0.864345 -0.0385239 1.37477
-0.864345 -0.037044 1.37451
-0.864345 -0.0159755 1.37419
-1.46434 0.000770271 1.37437
-1.46434 0.0183184 1.37415
-1.46434 0.0254746 1.37403
-1.46434 0.0486586 1.3741
-0.864345 0.0572119 1.37484
-0.864345 0.101667 1.37468
-1.46434 0.148202 1.37442
-1.46434 0.226227 1.37419
-1.46434 0.251825 1.37459
-1.46434 0.312016 1.37489
-1.46434 0.328822 1.37479
-1.42392 0.374229 1.37407
-1.40136 0.374229 1.37484
-1.36328 0.374229 1.37456
-1.31042 0.374229 1.37468
-1.30488 0.374229 1.37417
-1.26941 0.374229 1.37409
-1.22096 0.374229 1.37493
-1.20123 0.374229 1.37478
-0.994187 0.374229 1.37451
-0.95159 0.374229 1.37454
-0.873743 0.374229 1.3747
-1.42751 -0.225771 1.37577
-1.41824 -0.225771 1.37567
-1.37885 -0.225771 1.37508
-1.23388 -0.225771 1.3754
-0.901086 -0.225771 1.37545
-0.883209 -0.225771 1.37537
-0.864345 -0.135298 1.37593
-0.864345 -0.127016 1.37556
-1.46434 -0.0774281 1.37545
-1.46434 -0.0100459 1.37559
-1.46434 0.0144348 1.37591
-0.864345 0.10076 1.37571
-1.46434 0.18945 1.375
-0.864345 0.253215 1.37594
-1.46434 0.255452 1.37561
-1.46434 0.272076 1.37563
-1.46434 0.298548 1.37542
-1.46434 0.320378 1.37595
-1.46434 0.330859 1.3757
-1.46434 0.344907 1.37572
-1.45594 0.374229 1.37539
-1.3536 0.374229 1.37545
-1.3034 0.374229 1.37506
-1.22004 0.374229 1.3757
-1.01112 0.374229 1.37522
-0.998922 0.374229 1.37552
-0.958406 0.374229 1.37576
-0.949804 0.374229 1.37541
-1.27617 -0.225771 1.37685
-1.21816 -0.225771 1.37654
-1.20926 -0.225771 1.37675
-1.17736 -0.225771 1.37641
-1.16776 -0.225771 1.37612
-1.12002 -0.225771 1.37684
-1.08814 -0.225771 1.37642
-0.942903 -0.225771 1.37635
-0.864345 -0.138394 1.37647
-0.864345 -0.137074 1.3769
-0.864345 -0.103689 1.37634
-1.46434 -0.0514956 1.37619
-0.864345 -0.0292637 1.37633
-0.864345 0.0341833 1.37667
-1.46434 0.0415486 1.37619
-0.864345 0.0723002 1.37606
-1.46434 0.113871 1.37663
-0.864345 0.205759 1.37691
-1.31378 0.374229 1.37649
-1.22343 0.374229 1.37627
-1.21106 0.374229 1.37635
-1.15754 0.374229 1.37694
-1.10745 0.374229 1.37609
-1.02604 0.374229 1.37648
-0.974758 0.374229 1.3763
-1.22227 -0.225771 1.37732
-1.17891 -0.225771 1.37718
-1.11738 -0.225771 1.37798
-1.03025 -0.225771 1.37741
-1.46434 -0.221019 1.37722
-1.46434 -0.164436 1.3774
-1.46434 -0.138008 1.3772
-1.46434 -0.133776 1.37706
-1.46434 -0.0360143 1.37735
-0.864345 -0.0274763 1.37788
-1.46434 -0.0153414 1.37743
-0.864345 0.0800502 1.37763
-0.864345 0.129135 1.37758
-0.864345 0.163531 1.37755
-1.46434 0.333527 1.37731
-0.864345 0.367212 1.3775
-1.44257 0.374229 1.37733
-1.38165 0.374229 1.37736
-1.37846 0.374229 1.37799
-1.25514 0.374229 1.37756
-1.14073 0.374229 1.37706
-1.42423 -0.225771 1.37827
-1.20936 -0.225771 1.37893
-1.06777 -0.225771 1.3789
-1.06609 -0.225771 1.37826
-0.864345 -0.209652 1.37842
-1.46434 -0.201733 1.37803
-0.864345 -0.160475 1.37882
-1.46434 -0.0893953 1.37808
-1.46434 0.00321996 1.37821
-0.864345 0.0787362 1.37864
-1.46434 0.105536 1.37895
-1.46434 0.168397 1.37896
-0.864345 0.209082 1.37849
-0.864345 0.223679 1.37806
-0.864345 0.269188 1.3787
-1.46434 0.281585 1.37875
-1.46434 0.29925 1.37846
-0.864345 0.34783 1.37895
-0.864345 0.368285 1.37827
-1.32407 0.374229 1.37804
-1.23745 0.374229 1.37879
-1.0454 0.374229 1.3787
-1.0261 0.374229 1.37844
-0.912259 0.374229 1.37804
-0.899703 0.374229 1.37841
-1.40767 -0.225771 1.37972
-1.35429 -0.225771 1.37961
-1.23357 -0.225771 1.37948
-1.21069 -0.225771 1.37945
-1.20013 -0.225771 1.37975
-1.17102 -0.225771 1.37908
-1.14532 -0.225771 1.37993
-1.13634 -0.225771 1.37932
-1.1058 -0.225771 1.37973
-1.05401 -0.225771 1.37914
-1.03193 -0.225771 1.37979
-0.973248 -0.225771 1.37994
-0.964701 -0.225771 1.37936
-0.864345 -0.22557 1.37979
-1.46434 -0.220853 1.3791
-0.864345 -0.209304 1.37947
-0.864345 -0.192862 1.37918
-1.46434 -0.176737 1.37968
-0.864345 -0.147538 1.37911
-1.46434 -0.142843 1.37971
-0.864345 -0.107832 1.3794
-1.46434 0.0125617 1.37943
-1.46434 0.0812884 1.3796
-0.864345 0.0851449 1.37928
-0.864345 0.0918915 1.37964
-1.46434 0.119023 1.37946
-1.46434 0.121768 1.37992
-1.46434 0.255959 1.37948
-0.864345 0.268399 1.3799
-1.46434 0.310953 1.37917
-0.864345 0.329861 1.37984
-1.46434 0.331992 1.37903
-0.864345 0.352342 1.37965
-0.864345 0.366025 1.37944
-1.24312 0.374229 1.37905
-1.21955 0.374229 1.37929
-1.03856 0.374229 1.37928
-0.968162 0.374229 1.37907
-0.947818 0.374229 1.37954
-1.43254 -0.225771 1.3803
-1.36988 -0.225771 1.38051
-1.17754 -0.225771 1.38093
-1.12599 -0.225771 1.3805
-1.04837 -0.225771 1.38095
-1.00682 -0.225771 1.38081
-0.966797 -0.225771 1.38074
-0.864345 -0.214356 1.38071
-1.46434 -0.168064 1.38072
-1.46434 -0.0893005 1.38049
-0.864345 -0.0248972 1.38056
-0.864345 0.0498926 1.38015
-1.46434 0.050469 1.38024
-0.864345 0.072466 1.38051
-0.864345 0.100373 1.38099
-1.46434 0.109016 1.38037
-1.46434 0.118641 1.38005
-0.864345 0.144393 1.381
-1.46434 0.145016 1.38069
-0.864345 0.160258 1.38081
-0.864345 0.213193 1.38047
-1.46434 0.318938 1.38065
-0.864345 0.335233 1.38077
-1.46434 0.342558 1.38015
-1.23976 0.374229 1.38047
-1.21539 0.374229 1.38057
-1.16521 0.374229 1.3809
-1.10329 0.374229 1.38032
-1.0941 0.374229 1.38017
-1.03391 0.374229 1.38073
-0.97121 0.374229 1.38003
-0.907597 0.374229 1.38085
-0.884505 0.374229 1.3804
-1.39815 -0.225771 1.38199
-1.31217 -0.225771 1.38126
-1.23301 -0.225771 1.3811
-1.14106 -0.225771 1.38165
-1.02048 -0.225771 1.38162
-1.00985 -0.225771 1.38198
-0.917115 -0.225771 1.38147
-0.91652 -0.225771 1.3817
-0.864345 -0.20471 1.38189
-1.46434 -0.188222 1.38124
-0.864345 -0.146062 1.38171
-1.46434 -0.125457 1.38188
-0.864345 -0.111397 1.38172
-1.46434 -0.0999852 1.3812
-1.46434 -0.0779508 1.38105
-1.46434 -0.055707 1.38107
-1.46434 0.0401645 1.3814
-1.46434 0.0514205 1.3819
-0.864345 0.0616037 1.38132
-0.864345 0.0708963 1.38108
-0.864345 0.0835152 1.38177
-0.864345 0.200676 1.38197
-1.46434 0.209877 1.38174
-1.40989 0.374229 1.38129
-1.31954 0.374229 1.38147
-1.07054 0.374229 1.38173
-0.956096 0.374229 1.3812
-1.45215 -0.225771 1.38276
-1.36152 -0.225771 1.38264
-1.3104 -0.225771 1.38294
-1.27645 -0.225771 1.3825
-1.25407 -0.225771 1.38285
-1.06177 -0.225771 1.38277
-1.46434 -0.175859 1.38202
-1.46434 -0.0972902 1.38234
-0.864345 -0.0301748 1.3821
-1.46434 0.0434363 1.38266
-1.46434 0.102572 1.38269
-1.46434 0.112493 1.38208
-1.46434 0.126852 1.38297
-0.864345 0.130756 1.38257
-0.864345 0.14231 1.3821
-0.864345 0.143338 1.38286
-1.46434 0.171576 1.38281
-1.46434 0.175551 1.38286
-1.46434 0.275364 1.38211
-1.31054 0.374229 1.38207
-0.932176 0.374229 1.38226
-1.24561 -0.225771 1.38354
-1.20977 -0.225771 1.38347
-1.16095 -0.225771 1.38332
-1.09775 -0.225771 1.3838
-1.03977 -0.225771 1.38345
-0.938848 -0.225771 1.3835
-0.890096 -0.225771 1.38388
-0.864345 -0.176188 1.38375
-0.864345 -0.128023 1.38356
-1.46434 -0.0786912 1.38303
-0.864345 -0.0509146 1.38372
-1.46434 -0.0444569 1.3832
-0.864345 -0.0250761 1.38361
-1.46434 -0.0243463 1.38367
-0.864345 -0.0200368 1.38398
-0.864345 -0.00981715 1.38315
-0.864345 0.0262473 1.38301
-1.46434 0.0403289 1.38383
-1.46434 0.0908387 1.38301
-0.864345 0.105387 1.38348
-0.864345 0.151114 1.38382
-0.864345 0.154596 1.38314
-0.864345 0.19412 1.38328
-1.46434 0.235978 1.38385
-0.864345 0.254749 1.38306
-0.864345 0.292977 1.38386
-1.46434 0.304901 1.38335
-0.864345 0.359763 1.38369
-0.864345 0.368026 1.38365
-1.3758 0.374229 1.38355
-1.31043 0.374229 1.38318
-1.17842 0.374229 1.38343
-1.14651 0.374229 1.3837
-1.01871 0.374229 1.38335
-1.36939 -0.225771 1.38413
-1.26414 -0.225771 1.38492
-1.21067 -0.225771 1.38498
-1.04927 -0.225771 1.3843
-1.00828 -0.225771 1.38475
-0.954637 -0.225771 1.38477
-0.948992 -0.225771 1.38404
-0.908203 -0.225771 1.38434
-0.886422 -0.225771 1.38466
-0.864345 -0.15214 1.38481
-0.864345 -0.125787 1.38442
-0.864345 -0.10362 1.38466
-0.864345 -0.060977 1.38465
-0.864345 -0.0229104 1.38408
-1.46434 -0.00983146 1.38455
-0.864345 0.0376907 1.38478
-1.46434 0.0559446 1.38472
-0.864345 0.0624817 1.38477
-0.864345 0.0783752 1.38475
-1.46434 0.0895623 1.3845
-0.864345 0.110032 1.38403
-1.46434 0.166189 1.3841
-1.46434 0.168676 1.38462
-0.864345 0.373459 1.3847
-1.37575 0.374229 1.38472
-1.34945 0.374229 1.38455
-1.29647 0.374229 1.38407
-1.28532 0.374229 1.38408
-1.25998 0.374229 1.38496
-1.22148 0.374229 1.38422
-1.14333 0.374229 1.38423
-0.993167 0.374229 1.38435
-1.13207 -0.225771 1.38541
-0.936001 -0.225771 1.38514
-0.896785 -0.225771 1.38581
-0.864345 -0.214673 1.38568
-0.864345 -0.163282 1.38581
-0.864345 -0.153287 1.38508
-0.864345 -0.150562 1.38549
-1.46434 -0.129214 1.38574
-0.864345 -0.0849666 1.38522
-1.46434 -0.0627783 1.38565
-0.864345 -0.0483225 1.38539
-0.864345 0.0391301 1.38586
-1.46434 0.169969 1.38518
-0.864345 0.267977 1.38558
-0.864345 0.297164 1.38593
-0.864345 0.298842 1.38574
-0.864345 0.31918 1.38516
-0.864345 0.366331 1.3853
-1.39759 0.374229 1.38598
-1.21817 0.374229 1.38508
-1.10809 0.374229 1.3858
-1.10481 0.374229 1.38587
-1.0404 0.374229 1.38543
-0.956277 0.374229 1.38529
-0.886723 0.374229 1.38582
-1.40774 -0.225771 1.3868
-1.27878 -0.225771 1.38649
-1.15269 -0.225771 1.38613
-1.10235 -0.225771 1.38624
-0.989178 -0.225771 1.38671
-1.46434 -0.210977 1.38631
-0.864345 -0.202753 1.38622
-0.864345 -0.178538 1.38622
-0.864345 -0.165607 1.38657
-0.864345 -0.0616203 1.38605
-1.46434 -0.0172965 1.38661
-1.46434 -0.00144422 1.38665
-1.46434 0.0313359 1.38693
-0.864345 0.0661176 1.38618
-1.46434 0.0690191 1.38657
-0.864345 0.0795289 1.38623
-1.46434 0.08082 1.38677
-1.46434 0.100019 1.38621
-0.864345 0.116063 1.38698
-0.864345 0.126681 1.38661
-1.46434 0.14313 1.38662
-0.864345 0.169594 1.38664
-0.864345 0.182001 1.3861
-1.46434 0.248014 1.38618
-0.864345 0.321714 1.38667
-1.46132 0.374229 1.3865
-1.44858 0.374229 1.38613
-1.32799 0.374229 1.38689
-1.29775 0.374229 1.38672
-1.24714 0.374229 1.38617
-1.20427 0.374229 1.38604
-1.14547 0.374229 1.38651
-1.13566 0.374229 1.38655
-1.43305 -0.225771 1.38755
-1.30261 -0.225771 1.38709
-1.04323 -0.225771 1.38731
-1.03469 -0.225771 1.38781
-1.00658 -0.225771 1.38731
-0.874729 -0.225771 1.3872
-0.864345 -0.204748 1.38744
-1.46434 -0.196608 1.38763
-1.46434 -0.175449 1.3877
-1.46434 -0.156836 1.38755
-0.864345 -0.133062 1.38724
-0.864345 -0.121428 1.38731
-1.46434 -0.0604845 1.38786
-1.46434 -0.0517536 1.38788
-0.864345 0.0142363 1.38768
-1.46434 0.0810447 1.38759
-0.864345 0.0923062 1.3879
-0.864345 0.103207 1.38797
-0.864345 0.144482 1.38721
-1.46434 0.152786 1.38777
-0.864345 0.174263 1.38738
-0.864345 0.339904 1.38717
-1.42786 0.374229 1.38775
-1.39924 0.374229 1.38721
-1.32762 0.374229 1.38704
-1.29966 0.374229 1.3876
-1.28201 0.374229 1.38731
-1.10025 0.374229 1.38727
-1.00398 0.374229 1.38731
-0.95334 0.374229 1.38773
-0.93049 0.374229 1.38702
-0.908265 0.374229 1.3877
-1.45594 -0.225771 1.38842
-1.42239 -0.225771 1.3883
-1.39828 -0.225771 1.38886
-1.38736 -0.225771 1.38854
-1.37758 -0.225771 1.38827
-1.05477 -0.225771 1.38852
-0.864345 -0.223156 1.38822
-0.864345 -0.19681 1.3889
-0.864345 -0.195365 1.3888
-0.864345 -0.17824 1.38894
-1.46434 -0.173657 1.38886
-1.46434 -0.171407 1.38848
-1.46434 -0.134921 1.38832
-1.46434 -0.102112 1.38848
-1.46434 -0.0548117 1.38828
-1.46434 0.00719446 1.3887
-1.46434 0.0257109 1.38825
-0.864345 0.0300088 1.38862
-0.864345 0.0607806 1.38877
-0.864345 0.112509 1.38882
-0.864345 0.129862 1.38848
-1.46434 0.140004 1.38874
-1.46434 0.209927 1.38814
-0.864345 0.219911 1.38881
-1.46434 0.337588 1.38805
-0.864345 0.371311 1.38829
-1.42591 0.374229 1.38833
-1.35579 0.374229 1.38855
-1.33808 0.374229 1.3883
-1.20484 0.374229 1.3888
-0.896848 0.374229 1.38826
-0.89073 0.374229 1.38863
-1.4155 -0.225771 1.38901
-1.40608 -0.225771 1.38939
-1.27191 -0.225771 1.38944
-1.2428 -0.225771 1.38919
-1.15823 -0.225771 1.38968
-1.12107 -0.225771 1.38959
-0.972689 -0.225771 1.38929
-0.936124 -0.225771 1.38966
-0.910074 -0.225771 1.38914
-0.864345 -0.20472 1.38999
-0.864345 -0.198644 1.38967
-1.46434 -0.192115 1.38959
-1.46434 -0.182035 1.38947
-1.46434 -0.134834 1.3891
-1.46434 -0.121982 1.38954
-0.864345 -0.0350759 1.38904
-1.46434 -0.0303514 1.38988
-0.864345 0.000314549 1.38917
-0.864345 0.00329402 1.38922
-0.864345 0.0311597 1.38951
-1.46434 0.0368593 1.38925
-0.864345 0.0689457 1.38935
-0.864345 0.0880641 1.38917
-0.864345 0.133932 1.38928
-0.864345 0.156196 1.38977
-1.46434 0.204306 1.38951
-1.46434 0.239615 1.3893
-0.864345 0.259968 1.38986
-0.864345 0.278598 1.38914
-1.46434 0.282655 1.38999
-1.46434 0.310625 1.3894
-1.46434 0.352456 1.38944
-0.864345 0.352485 1.38996
-1.46434 0.370233 1.38949
-1.32504 0.374229 1.38969
-1.23471 0.374229 1.38949
-1.2266 0.374229 1.38904
-1.20323 0.374229 1.38997
-1.19939 0.374229 1.38925
-1.11026 0.374229 1.38925
-1.08051 0.374229 1.3898
-1.06418 0.374229 1.38931
-0.944299 0.374229 1.38956
-0.919697 0.374229 1.3897
-1.44956 -0.225771 1.39041
-1.44279 -0.225771 1.3904
-1.34638 -0.225771 1.39005
-0.864345 -0.178687 1.39084
-0.864345 -0.146537 1.39025
-0.864345 -0.0785214 1.39054
-0.864345 -0.0598143 1.39022
-1.46434 -0.0303243 1.3909
-0.864345 -0.0288687 1.39089
-0.864345 0.00433205 1.39005
-0.864345 0.0322021 1.39002
-1.46434 0.100457 1.39037
-1.46434 0.141667 1.39089
-1.46434 0.1656 1.39047
-0.864345 0.192311 1.39071
-0.864345 0.303802 1.39044
-1.46434 0.317999 1.39074
-1.46434 0.366711 1.39024
-1.3699 0.374229 1.39017
-1.34844 0.374229 1.39052
-1.28684 0.374229 1.39093
-1.24952 0.374229 1.39038
-1.14714 0.374229 1.39033
-1.1029 0.374229 1.39017
-0.883987 0.374229 1.3903
-1.4577 -0.225771 1.39156
-1.26171 -0.225771 1.39189
-1.12971 -0.225771 1.39175
-0.983851 -0.225771 1.3916
-0.922912 -0.225771 1.39158
-0.919465 -0.225771 1.39183
-0.916152 -0.225771 1.39189
-0.896305 -0.225771 1.39139
-1.46434 -0.20983 1.39135
-0.864345 -0.159127 1.39178
-0.864345 -0.14546 1.39128
-1.46434 -0.132834 1.39153
-1.46434 0.0178711 1.39126
-0.864345 0.0577356 1.3914
-0.864345 0.0623483 1.39145
-0.864345 0.0772715 1.39161
-0.864345 0.143204 1.39114
-1.46434 0.158118 1.39148
-1.46434 0.184044 1.3911
-0.864345 0.208652 1.39125
-1.46434 0.23419 1.39186
